# .PCD v0.7 - Point Cloud Data file format
VERSION 0.7
FIELDS x y z
SIZE 4 4 4
TYPE F F F
COUNT 1 1 1
WIDTH 1518
HEIGHT 1
VIEWPOINT 0 0 0 1 0 0 0
POINTS 1518
DATA ascii
0.86843204 2.7260888 0.76662207
0.63662648 1.9840466 0.036370814
0.81137133 2.527127 -0.61276668
0.6301648 1.9603802 0.10791675
0.81453931 2.5324378 -0.51709241
0.79594594 2.4731495 0.22730216
0.81198233 2.5214641 -0.4195573
0.87121004 2.7037721 0.34879011
0.81669295 2.5315487 -0.32660985
0.88291818 2.7352014 0.45522434
0.81813127 2.5329852 -0.23288015
0.87301636 2.7012963 0.55181968
0.61670995 1.9059598 -0.10498594
0.8733682 2.6975577 0.65460753
0.6403144 1.9765543 -0.0362661
0.87366188 2.6777182 -0.75471634
0.64541769 1.9769974 0.036301006
0.66622007 2.0395079 -0.49534222
0.63821507 1.9514711 0.10760273
0.82490468 2.5208189 -0.51556593
0.80845386 2.469089 0.22730216
0.82719219 2.5248315 -0.42080876
0.892923 2.72385 0.35195872
0.82887483 2.5254974 -0.32636613
0.8967514 2.7306974 0.45522434
0.83218563 2.5325973 -0.23322876
0.89035457 2.7080338 0.55410933
0.63571644 1.9312708 -0.10655601
0.64655524 1.9618925 -0.036056671
0.89477408 2.7134888 0.76558679
0.6797021 2.0480342 -0.57820177
0.65541619 1.9737053 0.036301006
0.66608864 2.0046711 -0.48769391
0.64808446 1.9482156 0.10760273
0.83996135 2.5206122 -0.42080876
0.90607071 2.7174122 0.35171497
0.84164727 2.5212696 -0.32636613
0.91056162 2.7261233 0.45522434
0.84246665 2.5207944 -0.23253153
0.90529555 2.7072167 0.55487263
0.64548266 1.9280286 -0.10655601
0.65838385 1.964283 -0.036161385
0.91095418 2.7162514 0.76765728
0.67345768 1.9930813 -0.56370795
0.66160232 1.9568695 0.036056671
0.70476449 2.0821378 -0.50748956
0.66566354 1.9654894 0.10875413
0.68680209 2.0267406 -0.41596362
0.92250931 2.716069 0.35220242
0.85847032 2.5260763 -0.32758483
0.9264096 2.7228656 0.45553723
0.85653251 2.5160496 -0.23253153
0.91850257 2.6965427 0.55372775
0.66977829 1.9640909 -0.10875413
0.92758733 2.7185495 0.66315573
0.67192876 1.9681449 -0.036301006
0.93235421 2.7294028 0.7728337
0.68297398 1.9857546 -0.56267262
0.70840168 2.056185 -0.50209075
0.67889202 1.969412 0.10917282
0.71151811 2.0593903 -0.34509447
0.93784004 2.712914 0.35244617
0.87536997 2.5307746 -0.32880351
0.94629824 2.7327466 0.45804018
0.87730843 2.5320868 -0.23444894
0.93500835 2.6970985 0.55487263
0.93461156 2.6914001 0.65775687
0.68519211 1.9720365 -0.036440626
0.69051832 1.9729131 -0.5600844
0.70111603 2.000952 -0.48949349
0.68953693 1.9657103 0.10917282
0.89074332 2.5378809 -0.52281672
0.93609893 2.6656184 0.24717368
0.95184624 2.7059274 0.35220242
0.88904899 2.5260017 -0.32880351
0.96321881 2.7352073 0.45929164
0.89254111 2.5330958 -0.23497188
0.9522 2.6994057 0.55639905
0.84619743 2.3975637 -0.13324735
0.96426356 2.7305706 0.66855454
0.95170164 2.6920011 0.76506913
0.68853152 1.9346902 -0.55024934
0.94649982 2.6580813 0.049250688
0.70962059 1.9917468 -0.48814377
0.70350152 1.9734826 0.10980085
0.90753365 2.544435 -0.52510637
0.97081196 2.718848 0.25257733
0.90783292 2.541065 -0.42737901
0.96953827 2.712291 0.35366488
0.90048629 2.517731 -0.32831606
0.97286499 2.7171085 0.45710155
0.90847915 2.5358911 -0.23566914
0.96982592 2.7056403 0.55868876
0.85562396 2.3857303 -0.13282867
0.96754116 2.6963072 0.66135609
0.95662272 2.662956 -0.049390312
0.6772936 1.8730451 -0.53368485
0.72035623 1.9899619 -0.4885937
0.9121443 2.5156546 -0.52014536
0.98184329 2.7064073 0.25188008
0.91663677 2.5252972 -0.42550179
0.98576075 2.7127743 0.3543961
0.91636896 2.5204444 -0.32929099
0.98728067 2.7140055 0.45741442
0.91789597 2.5218987 -0.23479758
0.9866668 2.7079041 0.56021523
0.87015647 2.3868465 -0.13314268
0.98832524 2.709511 0.66585511
0.97008938 2.6580796 -0.049390312
0.68309236 1.8585939 -0.53057909
0.97382152 2.6481938 0.049250688
0.72941929 1.9825054 -0.48769391
0.9255445 2.5128477 -0.52052695
0.99737823 2.7049685 0.25222871
0.92437851 2.5056365 -0.42299888
0.99810296 2.7040257 0.3539086
0.93186569 2.5232222 -0.33026594
1.0083282 2.7273271 0.46054313
0.9310872 2.5170586 -0.23479758
0.99695331 2.6936693 0.55830717
0.88500082 2.3899033 -0.13356137
0.99457711 2.6843743 0.6609062
0.96591365 2.6042171 -0.048482787
0.99743271 2.6877613 0.76817495
0.69924712 1.8732113 -0.53575546
1.0054016 2.6919377 0.050158214
0.73842496 1.975008 -0.48679405
0.94419372 2.5226769 -0.5235799
1.0138519 2.7073491 0.25292596
0.93956465 2.5063112 -0.42393744
1.0122479 2.6987624 0.3539086
0.94785589 2.5257421 -0.33124092
1.0221186 2.7221889 0.46054313
0.94846129 2.5233383 -0.23584343
1.0179535 2.7067888 0.5621233
0.89328122 2.3740213 -0.13293335
1.0154865 2.697367 0.66540521
1.0119747 2.6852 -0.050088406
1.0217177 2.7096152 0.77593952
0.69945407 1.8442361 -0.52850848
1.0081333 2.6567223 0.049599741
0.74875534 1.9711149 -0.48679405
1.0182281 2.6790953 0.15020421
0.95738983 2.5176985 -0.5235799
1.0308467 2.7094522 0.25362319
0.95478433 2.5068953 -0.42487606
1.0277776 2.6971359 0.3543961
0.96177399 2.5225997 -0.33148462
1.0419905 2.7315645 0.46304604
0.96308106 2.5220604 -0.23619205
1.0272077 2.6885836 0.559452
0.95562011 2.4999037 -0.14026037
1.0288988 2.6901929 0.66495532
1.033886 2.700407 -0.05047236
1.0372725 2.7078369 0.7769748
0.7049349 1.8297322 -0.52540272
1.0205905 2.6476755 0.049529929
0.74223006 1.923533 -0.47599643
1.0322409 2.6737275 0.15020421
0.96772873 2.5053256 -0.52205342
1.0478938 2.7114506 0.25432047
0.97074747 2.5092313 -0.42612755
1.0440369 2.6972704 0.35512727
0.9728176 2.5119762 -0.33075345
1.0527093 2.716862 0.46148172
0.97915453 2.5244138 -0.2368893
1.0441113 2.6904898 0.56097847
1.0366502 2.6698785 -0.15009953
1.0436627 2.6837738 -0.050262932
0.70887351 1.8116239 -0.52126157
1.0548519 2.6944337 0.050507262
0.727404 1.8561168 -0.46024984
1.0389358 2.6496913 0.14915749
1.0628035 2.7077816 0.25449476
1.0625021 2.702852 0.35658973
0.98886353 2.5142374 -0.33172837
1.0661974 2.7094746 0.46116886
0.99235922 2.5192523 -0.2368893
1.0632237 2.6977715 0.56364983
1.0198433 2.5863771 -0.14570332
1.060589 2.6883349 0.6672048
1.0628413 2.691292 -0.050507262
1.0520828 2.6626894 0.76713973
0.7162087 1.8025017 -0.51970869
1.0645136 2.6777241 0.050297838
0.73422986 1.8450404 -0.45845026
1.0675719 2.6813271 0.15125093
1.0740154 2.694777 0.25379753
0.71881479 1.8017234 -0.30723733
1.0795825 2.7046268 0.35756469
1.0898982 2.7277012 0.46523616
1.0055367 2.5140216 -0.2368893
1.0780643 2.69399 0.56403142
1.0289178 2.5698767 -0.14507528
1.00696 2.5112226 -0.047226213
1.0638527 2.6517653 0.76558679
0.72274685 1.7915602 -0.51763809
1.0815123 2.6795313 0.050437454
0.74096155 1.833943 -0.45665067
1.0860869 2.686811 0.15187897
0.7265138 1.7963806 -0.37665698
1.094838 2.7057381 0.25536633
0.72897965 1.7997661 -0.30755019
1.0944762 2.7007761 0.35780841
1.1086199 2.7329404 0.46711335
1.0186867 2.5087218 -0.2368893
1.0122774 2.4904437 -0.14088841
1.1011633 2.7077692 0.67485321
1.0276347 2.5244365 -0.047575258
1.0893821 2.6747851 0.77386898
0.73358124 1.7913272 -0.51867342
1.0288106 2.5109963 0.047365833
0.74801642 1.8247601 -0.45530096
1.1016568 2.6847827 0.1520883
0.73665637 1.7943677 -0.3770386
1.1142883 2.7128699 0.25658652
0.73958176 1.7997075 -0.30817595
1.1123774 2.7041879 0.35902712
0.74416608 1.8081697 -0.24008264
1.1236682 2.7289243 0.46742624
1.1226832 2.7224824 0.57242703
1.0420609 2.525728 -0.14319119
1.1078897 2.6839538 0.67035419
1.0449792 2.5302925 -0.04778469
1.1183977 2.7067313 0.78473938
0.74146777 1.7838935 -0.51763809
1.0480858 2.5203464 0.04764507
0.75830936 1.8226174 -0.45575082
1.1213722 2.6939235 0.15292569
0.74195373 1.7815548 -0.3751305
1.1277113 2.7051589 0.25641218
0.74747342 1.7921642 -0.30755019
1.1291085 2.7058511 0.36000207
0.74872005 1.7933886 -0.23862019
1.1356554 2.7175357 0.46648762
0.74857187 1.7903966 -0.16977938
1.1372038 2.7185771 0.57280862
1.067169 2.5498998 -0.14486594
1.0582125 2.5247867 -0.04778469
1.1310611 2.6972752 0.7837041
0.74448287 1.7658771 -0.51349699
1.059275 2.5113244 0.047575258
0.76708364 1.8168269 -0.45530096
1.0561888 2.500351 0.14224915
0.75280136 1.781262 -0.37589374
1.1367325 2.6884065 0.25536633
0.76300752 1.8027787 -0.31005314
1.1486782 2.7126977 0.36170825
0.76661736 1.8095503 -0.24130133
1.156334 2.7281218 0.46930346
0.75171012 1.7717795 -0.16838489
1.156027 2.723428 0.57509834
0.76197445 1.7942305 -0.1021598
1.1473711 2.699106 0.67710268
1.0698529 2.5155308 -0.047714882
0.75554591 1.7653756 -0.51453227
1.0783575 2.5184243 0.047819596
0.76277339 1.7805423 -0.44720268
1.0787081 2.5168152 0.1435052
0.77326381 1.8024223 -0.3812364
1.1544052 2.6895399 0.25606358
0.76464134 1.7806083 -0.30692446
1.1675682 2.7175896 0.36317068
0.79678714 1.8527896 -0.24763852
1.1710767 2.7218258 0.46930346
0.76255351 1.7714789 -0.16873352
1.1671638 2.7101254 0.57357186
0.76376557 1.77174 -0.10111307
1.1692045 2.7109559 0.6816017
0.77561486 1.7975034 -0.034171812
1.1673723 2.7028158 0.78888047
0.76631898 1.7649391 -0.51556754
1.0899346 2.5090754 0.047749784
0.75965732 1.7479283 -0.44000426
1.0954957 2.5182683 0.14392389
1.1748356 2.6980724 0.25745806
0.77868795 1.787446 -0.30880168
1.180668 2.7075932 0.36268318
1.187683 2.7210877 0.47024205
0.78537256 1.7985024 -0.17169681
1.1818103 2.7037706 0.57357186
0.77143085 1.764057 -0.10090373
1.1857266 2.7101526 0.68295145
0.76737535 1.753116 -0.033403907
1.1949873 2.7287252 0.79819798
0.7739917 1.7573665 -0.51453227
1.1111208 2.5216331 0.048098832
0.76958621 1.7457094 -0.44045416
1.1050042 2.5053813 0.1435052
1.1969953 2.7101097 0.25920117
0.78324521 1.7725037 -0.30692446
1.1871338 2.6852424 0.36048955
0.79574889 1.7991009 -0.24154507
1.2051134 2.7220569 0.47149354
1.2034346 2.7157035 0.57738805
0.77711195 1.7528263 -0.10048504
1.1978475 2.7005539 0.6820516
0.77492148 1.7454185 -0.033334095
1.2069049 2.7171347 0.79664505
0.78287691 1.7534264 -0.51453227
1.1255013 2.5196285 0.048168644
0.78348809 1.7523304 -0.44315359
1.1246318 2.5141466 0.14434259
0.79956329 1.7866099 -0.38047317
1.2106974 2.7040162 0.25920117
0.80301774 1.7918122 -0.31099173
1.2044251 2.6862354 0.3614645
0.80678326 1.7985319 -0.24203253
1.217257 2.7123182 0.47086781
0.82294011 1.8319808 -0.17570597
1.2176366 2.7093656 0.57738805
0.79692602 1.7724143 -0.10184578
1.2111722 2.6924677 0.6816017
0.78733325 1.748631 -0.033473715
1.2250842 2.7195845 0.7992332
0.77132899 1.7035472 -0.50107372
1.1436297 2.5246298 0.048378069
0.80391806 1.773052 -0.44945222
1.1361307 2.5045855 0.14413324
0.80809593 1.780611 -0.38009155
1.2273093 2.703083 0.25972411
0.8083024 1.778591 -0.30942741
1.2291539 2.7033846 0.36463311
0.81372374 1.7888622 -0.24130133
1.2314423 2.7059073 0.47086781
0.8143512 1.7877576 -0.17187113
1.2358772 2.7118852 0.57929617
1.2301061 2.6967268 0.68430108
0.79481745 1.7408463 -0.033403907
1.240109 2.7148902 0.79975086
0.7858814 1.7117743 -0.50469714
1.1568321 2.5186074 0.048378069
0.81481981 1.772359 -0.45035201
0.8149454 1.7710053 -0.37894669
1.239781 2.6929991 0.25937548
1.2457868 2.7023191 0.36536431
0.82141566 1.780972 -0.24081384
1.251386 2.7119782 0.4730579
0.81952399 1.774425 -0.17099957
1.2484117 2.7018127 0.57853287
0.81376714 1.7603458 -0.10163644
1.2466637 2.6955552 0.68565083
0.79720151 1.7221432 -0.033124667
1.2551193 2.7101126 0.80026853
0.79564816 1.7093878 -0.50521481
1.1700039 2.5125155 0.048378069
0.82573462 1.7716011 -0.4512518
0.82586664 1.7702726 -0.37970993
1.2563915 2.6918874 0.25989842
0.82186723 1.7592906 -0.30755019
1.2573966 2.6903644 0.36463311
0.83072978 1.7766466 -0.24081384
1.2680817 2.7107561 0.47399649
0.82373387 1.7592835 -0.16995369
1.2650414 2.7005718 0.57967776
0.81619209 1.741593 -0.10079906
1.2723414 2.7136934 0.69194949
0.81810063 1.7432896 -0.033613335
1.2775015 2.7209914 0.8054449
0.80376261 1.7034515 -0.50469714
1.1899717 2.5208223 0.048657309
0.82500958 1.7461096 -0.44585299
1.2555628 2.6561663 0.1539724
0.83512551 1.7659235 -0.37970993
1.2772862 2.6996799 0.2612929
0.83444875 1.7621049 -0.30880168
1.2697667 2.6801558 0.36414564
0.82896733 1.7489533 -0.23764524
1.2890277 2.7183585 0.47649944
0.8329336 1.7549467 -0.16995369
1.2859001 2.7080994 0.58273071
0.81844401 1.7228631 -0.099961683
1.2823495 2.698194 0.68969995
0.81690937 1.7173122 -0.033194479
1.2884094 2.7072878 0.80337435
0.81600511 1.7061906 -0.50676769
1.2066083 2.5217719 0.048796929
0.84676605 1.7681299 -0.45260152
1.2763587 2.6639645 0.15480977
0.84096539 1.7544453 -0.37818345
1.2948493 2.7001414 0.26199016
0.85392046 1.7790822 -0.31255612
1.2880781 2.6824183 0.36536431
0.81834364 1.7034341 -0.23203924
1.3058096 2.7169135 0.47743803
0.84383953 1.7541517 -0.17030232
1.3017639 2.7048678 0.58349395
0.82831955 1.720354 -0.10006636
1.299844 2.6984644 0.69149953
0.82588941 1.7130117 -0.033194479
1.3101224 2.7161641 0.80803311
0.82071459 1.6932025 -0.50417954
1.2320102 2.5406098 0.049285594
0.86336023 1.7796011 -0.45665067
1.3042474 2.685992 0.15648453
0.84413528 1.7376565 -0.37551212
1.3098408 2.6951165 0.26216447
0.85773176 1.764078 -0.31067887
1.3099236 2.6917017 0.36755794
0.85679579 1.7598094 -0.24032637
1.3191528 2.7082632 0.4771252
0.83699667 1.7176197 -0.16716471
1.3193517 2.7050729 0.58502042
0.8408196 1.723173 -0.10048504
1.3148093 2.6933734 0.69194949
0.83279443 1.7052157 -0.033124667
1.3230056 2.707762 0.80751544
0.8244589 1.6784781 -0.50107372
1.2417673 2.5269458 0.049145978
0.86922663 1.768061 -0.45485103
1.317826 2.6793559 0.15648453
0.86158687 1.7509774 -0.37932828
1.3239348 2.688221 0.26216447
0.87394071 1.7737387 -0.31318185
1.327042 2.6921589 0.36853293
0.86920416 1.7625715 -0.24130133
1.3333155 2.7013187 0.4771252
0.85744679 1.7364374 -0.16943076
1.3365049 2.7054009 0.5865469
0.85130072 1.7224762 -0.1006944
1.3344713 2.6989119 0.69509876
0.84437251 1.7062085 -0.033229381
1.340593 2.7077234 0.80958605
0.84154814 1.6915803 -0.50625008
1.2545419 2.5206282 0.049145978
1.3371813 2.6831448 0.15711255
0.87337142 1.7517132 -0.38047317
1.3401911 2.6868346 0.26268741
0.86380488 1.7302562 -0.3062987
1.3455552 2.6940532 0.36975163
0.87575853 1.7526692 -0.2405701
1.3540375 2.7086709 0.47962815
0.86652642 1.7319243 -0.16943076
1.348895 2.6948545 0.58578366
0.85851955 1.7144233 -0.10048504
1.3560401 2.7055893 0.69869798
0.85329491 1.7017637 -0.033229381
1.3608147 2.7127547 0.81320947
0.85242712 1.6904525 -0.50728536
1.2744665 2.5263009 0.049390312
0.87364572 1.7310259 -0.44765261
1.3458111 2.6654091 0.15648453
0.88018006 1.7417052 -0.37932828
1.3654963 2.7008808 0.26477915
0.89960015 1.7785914 -0.3156848
1.3587455 2.6851997 0.36950788
0.8789506 1.7355086 -0.23886393
1.368672 2.7013056 0.47962815
0.87558311 1.7273635 -0.16943076
1.3700893 2.7017632 0.58883661
0.86687917 1.707972 -0.10038038
1.3710692 2.7001901 0.69914788
0.86581564 1.7044044 -0.033369001
1.3807257 2.7156844 0.81631529
0.86654079 1.6962878 -0.51039118
1.2894971 2.5231543 0.04946012
0.88979381 1.7403089 -0.4512518
1.365672 2.6687562 0.15711255
0.89286554 1.7440633 -0.38085476
1.3778033 2.6901472 0.26443052
0.89088488 1.7386959 -0.30942741
1.3841244 2.6990056 0.37243277
0.89074433 1.7361813 -0.23959514
1.3827965 2.6941025 0.47962815
0.88643593 1.7262998 -0.16977938
1.3918654 2.7082803 0.59188956
0.87672287 1.7051862 -0.10048504
1.3851889 2.6929739 0.69914788
0.86923754 1.6891794 -0.033159573
1.3979908 2.7155313 0.81838584
0.86830741 1.6780016 -0.50625008
1.3091251 2.5287993 0.049704451
0.90606457 1.749469 -0.45485103
1.3828368 2.6689038 0.15753125
0.90077841 1.7377787 -0.38047317
1.3918691 2.6828966 0.26443052
0.92727542 1.7866066 -0.31881347
1.3995976 2.6954885 0.37292022
0.9068405 1.7457435 -0.24154507
1.3987077 2.6903298 0.48025388
0.89362341 1.7181 -0.16943076
1.4055558 2.7012007 0.59188956
0.88810933 1.7060416 -0.10079906
1.4033014 2.6945708 0.70139736
0.87252551 1.6739647 -0.032950144
1.4068311 2.6978965 0.81528002
0.88216871 1.6838524 -0.5093559
1.3228365 2.523912 0.049739357
0.91521174 1.7447013 -0.45485103
1.402361 2.6722374 0.15815927
0.91077703 1.7347769 -0.38085476
1.4035782 2.6722894 0.2640819
0.92007196 1.750254 -0.31318185
1.4109191 2.682853 0.37218902
0.91596907 1.7409713 -0.24154507
1.4196653 2.6972013 0.48275682
0.90167874 1.7116344 -0.16925645
1.4215124 2.6972768 0.5926528
0.90168685 1.710202 -0.10132242
1.4228463 2.6975281 0.70409679
0.88221139 1.6711421 -0.03298505
1.4335676 2.7144094 0.82252699
0.88916177 1.6757977 -0.50832063
1.3416581 2.527549 0.049948789
0.92799109 1.7467695 -0.45665067
1.4219569 2.6754405 0.15878731
0.92814422 1.745585 -0.38428935
1.4287782 2.6860125 0.26617363
0.92736822 1.7419248 -0.31255612
1.4324127 2.689445 0.37413892
0.92693847 1.7396555 -0.24203253
1.4393451 2.7001889 0.48463401
0.91344136 1.7121637 -0.16977938
1.4356148 2.6897974 0.5926528
0.90780711 1.7001717 -0.10100841
1.4406229 2.6969171 0.70589644
0.89377803 1.6717902 -0.033089764
1.4514054 2.7136798 0.82459748
0.89975303 1.6745224 -0.5093559
1.3586614 2.5275347 0.050088406
0.92696857 1.7230089 -0.45170173
1.4359475 2.6679578 0.15878731
0.93913221 1.7441586 -0.38505259
1.4503818 2.6925268 0.26756814
0.94209999 1.747478 -0.31443331
1.4502435 2.6888971 0.37511387
0.93226522 1.7277896 -0.24105757
1.4590926 2.7030458 0.48651123
0.92050076 1.703851 -0.16943076
1.4590126 2.6995156 0.59646893
0.91384637 1.6901249 -0.1006944
1.4528714 2.6859078 0.70499659
0.90632671 1.674122 -0.033229381
1.4747949 2.7230299 0.8297739
0.91220176 1.676576 -0.51142645
1.3737892 2.5238984 0.050158214
1.4479848 2.6568956 0.15857796
0.93603468 1.7168092 -0.38009155
1.4682765 2.6918921 0.26826537
0.95691615 1.7529243 -0.31631052
1.4624001 2.6777821 0.3746264
0.94225031 1.7246271 -0.24130133
1.4713314 2.6919022 0.4858855
0.93514597 1.7094959 -0.17047663
1.4693575 2.6849499 0.59494245
0.92652005 1.6923242 -0.10111307
1.4706584 2.6851013 0.70679623
0.9093129 1.6588322 -0.033019952
1.4946048 2.7254343 0.83287972
0.92656094 1.681929 -0.51453227
1.3985671 2.5376875 0.050577074
0.9619028 1.7439219 -0.45979998
1.4715248 2.666765 0.15962468
0.94311357 1.7084469 -0.37932828
1.4794619 2.6789346 0.26774243
0.95461482 1.7271433 -0.31255612
1.4821646 2.6805115 0.37608883
0.95607132 1.7283553 -0.24252002
1.4892322 2.6910746 0.48713696
0.94022214 1.6976048 -0.16977938
1.4986203 2.7046957 0.60104835
0.93924177 1.6944369 -0.10153177
1.4884768 2.6841815 0.70859581
0.92380863 1.664539 -0.033229381
1.4994776 2.7006812 0.82770336
0.93347222 1.6736805 -0.51349699
1.4059894 2.5198522 0.050367646
0.97957122 1.7541747 -0.46384907
1.4903386 2.6677413 0.16014804
0.95396113 1.7069132 -0.38009155
1.5002738 2.6833253 0.26896262
0.96171516 1.7186739 -0.31193036
1.5039358 2.6865721 0.37803873
0.96316898 1.719861 -0.24203253
1.5052322 2.686687 0.48776269
0.94909894 1.6926578 -0.16977938
1.5089201 2.6899626 0.59952188
0.95103258 1.6947215 -0.10184578
1.5101442 2.6899443 0.71219504
0.93447 1.6631662 -0.033299193
1.523064 2.7096331 0.83287972
0.95172054 1.6855927 -0.51867342
1.4240817 2.5211613 0.050542168
0.98460269 1.7424074 -0.46204948
1.5111692 2.6720705 0.16088074
0.96868622 1.7121472 -0.38238126
1.5221535 2.6893053 0.2703571
0.97234875 1.717222 -0.31255612
1.5150462 2.6734791 0.37730753
0.97705537 1.723429 -0.24325122
1.5309737 2.699388 0.49151716
0.95765436 1.6878322 -0.16977938
1.5326773 2.6990976 0.60333806
0.95397496 1.6792984 -0.10121775
1.5280586 2.6887779 0.71399468
0.97054982 1.7070895 -0.034276526
1.5424902 2.7119648 0.8359856
0.96628594 1.690649 -0.52177918
1.4442102 2.5258222 0.050786503
0.98500353 1.7220045 -0.45800033
1.5226908 2.6609206 0.1606714
0.96953684 1.6935915 -0.37932828
1.5381963 2.6847548 0.27070573
0.9773978 1.7052518 -0.31130463
1.5325074 2.6726651 0.37828246
0.98477846 1.7167395 -0.2430075
1.5490198 2.6981881 0.49276862
0.96747035 1.6845229 -0.16995369
1.5482756 2.6947098 0.6041013
0.96246111 1.6744491 -0.10121775
1.5435914 2.6843877 0.71489447
1.011392 1.7574466 -0.03539348
1.5547402 2.7005031 0.83495027
0.99030441 1.7124941 -0.53006142
1.4649873 2.5323274 0.051065743
0.99791324 1.7235688 -0.45979998
1.5426078 2.6632817 0.16129944
0.98823363 1.7054791 -0.3831445
1.5557625 2.6838295 0.27140298
0.99027759 1.7069458 -0.31255612
1.5494714 2.6697543 0.37901369
0.98976624 1.7046933 -0.24203253
1.5606728 2.6868963 0.49214289
0.98028195 1.6863245 -0.17065094
1.5702586 2.7001436 0.60715425
0.97222066 1.6711125 -0.10132242
1.553189 2.667577 0.71264493
1.4805471 2.5417926 -0.05134498
1.5785842 2.7090175 0.84012663
0.99565041 1.700443 -0.52799088
1.4907947 2.5450702 0.051484596
1.0128351 1.7284085 -0.46249935
1.5625924 2.6655056 0.16192746
1.0034076 1.7102671 -0.38543418
1.5702598 2.6753733 0.27140298
1.0062023 1.7136617 -0.31474617
1.5704659 2.6735864 0.38071984
1.0040053 1.7078695 -0.24325122
1.5791932 2.6852238 0.49339435
0.98707765 1.6777339 -0.17030232
1.5943336 2.7088041 0.61097044
0.9873296 1.6761535 -0.10195045
1.5799971 2.6812334 0.7184937
1.4968814 2.5391741 -0.051449694
1.5971451 2.707092 0.84219724
1.0252212 1.730108 -0.53886127
1.5285753 2.5785122 0.052322313
1.0301259 1.7363114 -0.46609858
1.5871855 2.6741874 0.16297418
1.0203669 1.718495 -0.38848713
1.5862803 2.670541 0.27175158
1.0174783 1.7115884 -0.3153719
1.5950541 2.6821127 0.38315722
1.0180091 1.7111189 -0.24446991
1.5972718 2.6837089 0.49464583
0.99512124 1.6706569 -0.17012802
1.6029357 2.6900196 0.60868073
0.99916065 1.6761075 -0.10226447
1.5980072 2.6796186 0.72029328
1.5146973 2.5379062 -0.051589314
1.6112978 2.6986921 0.84219724
1.5543993 2.5910513 0.05274117
1.0291723 1.7141862 -0.46159956
1.6032215 2.6692648 0.16318353
1.061708 1.7669796 -0.40069893
1.6146125 2.6861055 0.27419198
1.0254083 1.7045447 -0.31505907
1.6019111 2.661818 0.38145107
1.0279778 1.7074664 -0.24471366
1.6235321 2.6956146 0.49840027
1.0017976 1.6620111 -0.16977938
1.6230818 2.6916771 0.61097044
1.0017334 1.6605917 -0.10163644
1.6240973 2.6912367 0.72569209
1.5393372 2.5487692 -0.051973268
1.6313993 2.7001398 0.84530306
1.0573137 1.742399 -0.54610825
1.5949236 2.6273212 0.053648699
1.6151003 2.6574211 0.16297418
1.0607462 1.7446212 -0.39688274
1.6327966 2.6844232 0.2748892
1.0374007 1.7042139 -0.31599763
1.6220217 2.6635668 0.38291353
1.0307075 1.6918886 -0.24325122
1.6417365 2.6938241 0.49965176
1.0146362 1.6635467 -0.17047663
1.643289 2.6931973 0.61326015
1.0093733 1.6536193 -0.10153177
1.6300418 2.6693907 0.72209287
1.554746 2.5440874 -0.052043077
1.6515613 2.7014501 0.84840888
1.0765301 1.7533022 -0.55128461
1.6295924 2.6530118 0.054346792
1.0460459 1.701655 -0.46114969
1.637364 2.6625376 0.16381156
1.0492923 1.7055998 -0.3892504
1.6499618 2.680928 0.27541214
1.0535618 1.7105324 -0.31818774
1.6369863 2.6567278 0.38315722
1.0395523 1.6864685 -0.24325122
1.6558193 2.6851907 0.49965176
1.0296109 1.6683842 -0.1715225
1.6594309 2.6878967 0.61402339
1.0264132 1.6619064 -0.10236914
1.6501427 2.6707659 0.7247923
1.5585797 2.5206053 -0.051728934
1.6697489 2.699337 0.85047942
1.0755023 1.7312311 -0.54610825
1.6508491 2.6563327 0.05459113
1.0772818 1.7327478 -0.47104752
1.6576126 2.664103 0.16443959
1.0540578 1.6934155 -0.38772389
1.6650313 2.6739426 0.27558646
1.068472 1.7152382 -0.32006493
1.6634781 2.6683338 0.38608211
1.0599231 1.6995308 -0.24593236
1.6719464 2.6798365 0.50027746
1.0338227 1.6563905 -0.17082524
1.6797217 2.6891625 0.6163131
1.0340436 1.6548148 -0.10226447
1.6682352 2.6686995 0.72659194
1.6936364 2.7072287 0.85565579
1.0845516 1.7255764 -0.54610825
1.6636708 2.6459591 0.054556224
1.0884142 1.7303829 -0.47194731
1.6742671 2.6607502 0.16475362
1.0751663 1.7079962 -0.39230329
1.6843183 2.6736171 0.27645802
1.0753323 1.7062777 -0.3194392
1.6864886 2.6749945 0.38827574
1.0674527 1.6924649 -0.2456886
1.6943892 2.6844096 0.50278044
1.0446084 1.6543244 -0.17117387
1.6996025 2.6905847 0.61860281
1.0466725 1.6563144 -0.10268316
1.6942174 2.6799879 0.73199075
1.5641408 2.4723132 -0.051065743
1.7057209 2.6950591 0.85462052
1.6866977 2.6526923 0.054870363
1.1180769 1.7577372 -0.48094535
1.6989001 2.6687963 0.16580033
1.0967489 1.7222157 -0.39688274
1.6989 2.6667378 0.27663234
1.0860775 1.7041451 -0.32006493
1.6940687 2.6560845 0.38681334
1.0784347 1.6901999 -0.24617608
1.7185832 2.6924496 0.50590914
1.0529685 1.6490159 -0.17117387
1.7115519 2.6783409 0.61783957
1.0499527 1.6423967 -0.1021598
1.7145265 2.6809304 0.73469019
1.5529236 2.4273078 -0.050297838
1.7255887 2.6961539 0.85772634
1.29764 2.018182 -0.64290655
1.7005645 2.6438241 0.054870363
1.1757725 1.8272427 -0.50164086
1.7069814 2.6517661 0.16527697
1.1065148 1.7182925 -0.39726433
1.7236316 2.6745539 0.27837545
1.0960561 1.7000953 -0.32037783
1.7096429 2.6508121 0.38730082
1.0869761 1.6847196 -0.24617608
1.7369449 2.6900513 0.5071606
1.0702361 1.6568692 -0.17256837
1.7293487 2.676239 0.61936599
1.0593367 1.6387385 -0.10226447
1.7238402 2.665673 0.73289055
1.5612671 2.4124272 -0.050158214
1.7501801 2.7032988 0.8629027
1.3355743 2.0534658 -0.6563651
1.7263796 2.653322 0.055254318
1.3058013 2.0053892 -0.5524798
1.7234845 2.6458383 0.16548631
1.1072209 1.6991217 -0.39421138
1.7452286 2.6771755 0.27959561
1.1181906 1.7139932 -0.32413223
1.7380633 2.6631348 0.39046943
1.0993313 1.6838005 -0.24690731
1.748845 2.6776128 0.50653487
1.0813653 1.6543897 -0.17291699
1.754548 2.6832745 0.62318224
1.0911471 1.6680833 -0.10446258
1.7446404 2.6660907 0.73558998
1.5534807 2.3721604 -0.049495026
1.7647812 2.6937897 0.8629027
1.3356906 2.0303054 -0.65118873
1.7435484 2.6492565 0.055359036
1.7483035 2.6534555 0.16653302
1.1182628 1.6965801 -0.39497465
1.7581248 2.666338 0.2794213
1.1162694 1.6916275 -0.32100356
1.7607317 2.6672521 0.39241934
1.1114146 1.6829904 -0.24763852
1.7715507 2.6816051 0.50903779
1.0878154 1.645381 -0.17256837
1.7729045 2.6806016 0.62470871
1.1219078 1.6956606 -0.10655601
1.7757857 2.6829193 0.74278837
1.5537331 2.3456552 -0.049111072
1.7831304 2.690954 0.86497331
1.350584 2.029717 -0.65325934
1.7596111 2.6434207 0.055428844
1.3656236 2.0499914 -0.56867629
1.7621721 2.6442657 0.16653302
1.2491006 1.8736564 -0.43771586
1.7720618 2.6570959 0.2794213
1.1262083 1.6874026 -0.32131645
1.7879008 2.6778069 0.3953442
1.122416 1.6804498 -0.248126
1.7899575 2.6788619 0.51028925
1.0964152 1.6396629 -0.17256837
1.7890993 2.6745453 0.62547189
1.1396567 1.7030425 -0.10739339
1.7941445 2.6800628 0.74458802
1.5682199 2.3408103 -0.04918088
1.799346 2.6847906 0.86600858
1.3622718 2.02422 -0.65377688
1.7756606 2.6374893 0.055498652
1.3708944 2.0347319 -0.56642675
1.7893877 2.6548777 0.16778909
1.3401132 1.9875478 -0.46595559
1.7948635 2.6609948 0.28081581
1.1770254 1.7436988 -0.33320546
1.7930105 2.6552477 0.39339426
1.8105963 2.6792734 0.5121665
1.1105664 1.6421515 -0.17343993
1.8052793 2.6683927 0.62623513
1.1328861 1.6738954 -0.10592799
1.8190784 2.6867683 0.74908704
1.5714805 2.3193235 -0.048901644
1.8307217 2.7009184 0.87429082
1.3804604 2.0282395 -0.65740043
1.805204 2.6512959 0.055987321
1.3892101 2.0387995 -0.56957608
1.8010159 2.6421702 0.16757976
1.8177532 2.6647284 0.28221029
1.8192025 2.663856 0.3960754
1.1589888 1.6964685 -0.25226957
1.8324026 2.6811721 0.51435655
1.1236488 1.6428921 -0.17413718
1.8258784 2.6686254 0.62852484
1.1258409 1.6448665 -0.10446258
1.8265158 2.6675589 0.7463876
1.5903844 2.3209617 -0.049111072
1.849208 2.6976688 0.87636131
1.3976324 2.0305319 -0.66050619
1.8224628 2.6467493 0.056092035
1.397656 2.0282874 -0.56867629
1.8170917 2.6359932 0.16778909
1.4020907 2.0332057 -0.48007545
1.8384703 2.6650128 0.28325617
1.8421519 2.6673603 0.39802533
1.2716645 1.840633 -0.27469352
1.8441688 2.6682916 0.51373082
1.1379018 1.6451795 -0.17500873
1.850996 2.675174 0.63234103
1.1730874 1.6947844 -0.10802142
1.8471136 2.6675723 0.74908704
1.584293 2.2863033 -0.048552595
1.8721114 2.7006516 0.88050246
1.4049352 2.0184283 -0.65895331
1.8397244 2.6420934 0.056196753
1.4182832 2.0353315 -0.57272536
1.8377221 2.6362734 0.16841713
1.4318074 2.0532134 -0.48656297
1.8501184 2.6520824 0.28290752
1.7108525 2.4506288 -0.47337076
1.8583651 2.660934 0.39851278
1.8671669 2.6715524 0.5162338
1.1407911 1.6310356 -0.17413718
1.873981 2.6783147 0.63539398
1.1659104 1.6657116 -0.10655601
1.8655268 2.6642492 0.75088662
1.5905039 2.2697887 -0.048378069
1.8840089 2.6876483 0.87946719
1.4177077 2.0142047 -0.65998858
1.8569858 2.6373301 0.056301463
1.4356551 2.037436 -0.57542479
1.8607053 2.6396751 0.1692545
1.4493279 2.0553141 -0.48885265
1.8662754 2.6456161 0.28325617
1.7259406 2.4448638 -0.47399649
1.8757067 2.6560321 0.39924401
1.8856913 2.668191 0.51748526
1.1550671 1.6331737 -0.17500873
1.8857127 2.6652594 0.63463074
1.1976925 1.6921895 -0.10864946
1.8952156 2.6767116 0.75718528
1.6231769 2.2907987 -0.049006358
1.9092263 2.6935081 0.88464355
1.4383166 2.0209191 -0.66464734
1.8777288 2.6373446 0.056510892
1.4451729 2.0283039 -0.57497489
1.886094 2.6461601 0.17030121
1.45437 2.0397053 -0.48694456
1.8963004 2.6585159 0.28569651
1.7375697 2.434186 -0.47368363
1.8918955 2.6494052 0.39973149
1.4008063 1.9609617 -0.2958988
1.9122689 2.6759605 0.52092683
1.1705574 1.6368264 -0.17605458
1.9110643 2.6713173 0.63844693
1.2158353 1.6988882 -0.10948683
1.906938 2.6635814 0.75628549
1.6328193 2.2790182 -0.04893655
1.9210544 2.6803331 0.88360828
1.4545207 2.0212004 -0.66723549
1.8973541 2.6355908 0.056685418
1.4546345 2.0191276 -0.574525
1.9045945 2.6427293 0.17071991
1.47077 2.0400252 -0.48885265
1.9195184 2.661478 0.28709102
1.7375746 2.4074352 -0.47024205
1.9162003 2.6539474 0.40192512
1.4087303 1.9503815 -0.29541129
1.9285681 2.6691132 0.52155256
1.3460547 1.861553 -0.20098113
1.9342306 2.674 0.64149988
1.9185719 2.650404 0.7553857
1.6564614 2.2866313 -0.049285594
1.9509314 2.6921382 0.89085519
1.4741758 2.0260541 -0.67137665
1.9264257 2.6466389 0.057139181
1.4763058 2.0274935 -0.57902402
1.9160525 2.6294928 0.17051056
1.4768069 2.0259495 -0.4873262
1.9428194 2.6642694 0.2884855
1.7415876 2.387439 -0.46805197
1.9319494 2.6474214 0.40241259
1.4271176 1.954201 -0.2971175
1.9565009 2.6781194 0.525307
1.3801473 1.8884968 -0.20464167
1.959326 2.6800251 0.64531606
1.7217946 2.3533952 -0.152821
1.9393277 2.6497579 0.75808507
1.6656517 2.2749908 -0.049215786
1.9645332 2.6822288 0.89085519
1.4821231 2.0154538 -0.67034137
1.942167 2.6400754 0.057208989
1.4934795 2.0294123 -0.58172345
1.9482872 2.6454921 0.17218532
1.4765612 2.0042236 -0.48389161
1.9456402 2.6399674 0.2869167
1.7407551 2.3611035 -0.4646104
1.9629976 2.6615736 0.40606871
1.4393485 1.9501467 -0.29760498
1.9641632 2.6602368 0.52374262
1.3849527 1.8750769 -0.20394444
1.9728663 2.6700733 0.64531606
1.766932 2.3896167 -0.15575182
1.9735748 2.6681085 0.76618326
1.6866611 2.2793908 -0.049495026
1.9780829 2.6722517 0.89085519
1.496915 2.014128 -0.67241186
1.9566985 2.6318161 0.057243895
1.5099015 2.0293818 -0.58397293
1.9664227 2.6420054 0.17260399
1.4913757 2.0030239 -0.48541811
1.9708792 2.6460645 0.28865981
1.7318437 2.3234489 -0.4589788
1.980467 2.6560326 0.40679988
1.4515746 1.9460187 -0.29809242
1.9882342 2.6645107 0.52655846
1.3899833 1.8614137 -0.20324717
1.9962182 2.6722903 0.64836901
1.7742225 2.3742433 -0.15533313
1.9847208 2.6549633 0.76528347
1.6997699 2.2721298 -0.049529929
1.998993 2.6711378 0.89396101
1.5097607 2.0093522 -0.67344719
1.9788612 2.6327248 0.057488225
1.5228488 2.0245633 -0.58487272
1.9946388 2.650825 0.17386007
1.5089284 2.0045977 -0.48770785
2.0014849 2.6579916 0.29110017
1.7261546 2.2906837 -0.45428574
1.9979306 2.6503825 0.40753111
1.4653289 1.9431469 -0.29882365
2.0104876 2.6651018 0.52874857
1.4057124 1.8620616 -0.20411874
2.0125508 2.6649337 0.64913225
1.7384728 2.3011761 -0.15114626
2.0126936 2.6631918 0.77068228
1.7092314 2.2600086 -0.04946012
2.0316 2.6852851 0.9022432
1.5272723 2.0106497 -0.67655301
1.9998772 2.6318812 0.057697657
1.5357879 2.019664 -0.58577251
2.0109086 2.6435246 0.1740694
1.5241586 2.0029194 -0.4892343
2.0226159 2.6569872 0.29214606
1.7333359 2.2753294 -0.45303425
2.012984 2.6414638 0.40777487
1.4682633 1.9259748 -0.29736122
2.0411837 2.6765292 0.53312874
1.420279 1.8610102 -0.204816
2.0312412 2.6606019 0.65065867
1.7868649 2.3396611 -0.15428641
2.0277951 2.6541641 0.77113223
1.730757 2.2637374 -0.049739357
2.045634 2.6746094 0.9022432
1.544838 2.0118191 -0.67965883
2.0136321 2.6213727 0.057697657
1.5522795 2.0193205 -0.58802205
2.0174191 2.6234584 0.17344138
1.5322313 1.9917991 -0.48847106
2.0486503 2.6621506 0.29388916
1.7283522 2.2443111 -0.44865409
2.0364783 2.6434689 0.40972477
1.4807503 1.9214058 -0.2978487
2.052758 2.6626756 0.53250295
1.4373052 1.8630136 -0.20586187
2.0643368 2.6747971 0.65676457
1.7844433 2.3113027 -0.15303035
2.0476193 2.6512225 0.77338171
1.7376952 2.2483153 -0.049599741
2.0690625 2.676089 0.90638429
1.5577209 2.0067539 -0.6806941
2.0530844 2.6439619 0.058430657
1.5700071 2.0203967 -0.59072149
2.0458362 2.6317823 0.17469743
1.5498697 1.9930482 -0.49076074
2.0625627 2.6513865 0.29388916
1.7303715 2.2227614 -0.44615117
2.06249 2.6484301 0.41216215
1.4981097 1.9230226 -0.29931113
2.0788136 2.6674728 0.53563172
1.4323363 1.8366095 -0.20377012
2.0734823 2.6577606 0.65523815
1.7768613 2.2767346 -0.15135561
2.0710661 2.6527538 0.77698094
1.7519059 2.242337 -0.049669549
2.092562 2.6773963 0.91052544
1.5729765 2.0046501 -0.68276465
2.0607269 2.6253107 0.058256131
1.5853785 2.0182791 -0.59252107
2.076865 2.6430199 0.17616285
1.5675641 1.9941667 -0.49305046
2.0739532 2.637419 0.29354054
1.7248842 2.1919374 -0.44177097
2.0824671 2.6453943 0.41338086
1.5142992 1.92295 -0.30052981
2.1000865 2.6658614 0.5375089
1.4481008 1.8369079 -0.20464167
2.0995274 2.6622827 0.65905434
1.8555573 2.3520751 -0.15700789
2.095793 2.6556408 0.78103006
1.7722975 2.2441192 -0.049913883
2.1017625 2.6603394 0.9084549
1.5882527 2.0024412 -0.68483526
2.0843885 2.6270165 0.058535371
1.5959239 2.0099506 -0.59252107
2.1006136 2.6446207 0.17700022
1.5853124 1.995154 -0.4953402
2.0976512 2.6390016 0.29493502
1.7228111 2.1658702 -0.4383294
2.0975251 2.6360083 0.41362458
1.528056 1.9196539 -0.30126104
2.1213999 2.6641006 0.53938609
1.4676324 1.8417655 -0.20603617
2.1232285 2.6635342 0.66210729
2.0720654 2.5984211 -0.17417407
2.1278982 2.6674817 0.78777856
1.795252 2.2488737 -0.050228026
2.1421845 2.6825085 0.9198429
1.6059662 2.0031409 -0.68794107
2.109374 2.6301072 0.058849517
1.6113064 2.0076454 -0.59432071
2.1144309 2.6335862 0.17700022
1.6092596 2.003664 -0.49953794
2.1289124 2.6497254 0.29737538
1.7217494 2.1414256 -0.43520072
2.1212533 2.6373632 0.41557449
1.5318646 1.9038934 -0.30004236
2.1452277 2.6652679 0.54188907
1.4797556 1.837159 -0.20638479
2.1445355 2.6615539 0.66439694
2.1107106 2.6186364 -0.17626752
2.13939 2.6532691 0.78687876
1.8597436 2.3048053 -0.051694028
2.1562009 2.6712549 0.9198429
1.6261631 2.0067117 -0.69208211
2.1294131 2.6267931 0.05902404
1.6291618 2.0082617 -0.59702009
2.125675 2.6193771 0.17679088
1.6469514 2.0287433 -0.50793356
2.1477802 2.6447294 0.29807264
1.722973 2.1201162 -0.43269777
2.14505 2.6385431 0.4175244
2.1666348 2.6631916 0.54376626
1.4969015 1.838657 -0.20743066
2.160923 2.6533318 0.66516018
2.1332223 2.6183884 -0.17700022
2.1581769 2.6480742 0.78867841
2.1321416 2.6142652 -0.05888442
2.1823697 2.6748979 0.92501926
1.6403205 2.0026529 -0.69363505
2.1482062 2.6217954 0.059163656
1.6507756 2.0132661 -0.60106921
2.1570928 2.6298311 0.17825629
1.6774771 2.0443754 -0.51403946
2.1641271 2.6365273 0.29842126
1.7252728 2.1003814 -0.43050769
2.1714392 2.6426125 0.41996178
2.1780396 2.6487598 0.54314053
1.5077735 1.832333 -0.20760499
2.1947491 2.666234 0.67126608
2.1595995 2.6226006 -0.17804694
2.184402 2.6517797 0.79317743
2.1636086 2.6246674 -0.059373088
2.1963449 2.663435 0.92501926
1.6433917 1.9851091 -0.69052929
2.161906 2.6105101 0.059163656
1.6762155 2.0226011 -0.60646802
2.1708345 2.6184993 0.17825629
1.6931708 2.0416093 -0.51556593
2.1829901 2.631294 0.29911849
1.7160572 2.0670021 -0.42550179
2.194123 2.6418972 0.42166796
2.2070286 2.6555502 0.54689491
1.518622 1.8259439 -0.20777929
2.2011447 2.6456513 0.66897637
2.1860776 2.6266091 -0.17909366
2.2057395 2.6492901 0.7958768
2.1888409 2.6271303 -0.059687231
2.2152092 2.6578331 0.92708987
1.6488036 1.970551 -0.68845868
2.1858122 2.6114225 0.059442896
1.6717664 1.9958704 -0.60106921
2.2050383 2.631592 0.17993104
1.7000543 2.0282018 -0.51442105
2.2120998 2.6381481 0.30121022
1.71035 2.0383162 -0.42143452
2.2143078 2.6379747 0.42288667
2.2336087 2.6590831 0.55002367
1.5371354 1.8286439 -0.20899945
2.2225485 2.6431053 0.67126608
2.1998022 2.6151252 -0.17909366
2.2371459 2.6585803 0.80217546
2.2154484 2.6309285 -0.060036276
2.2490082 2.6698384 0.93537205
1.6478732 1.948614 -0.68379998
2.220119 2.6243696 0.060001373
1.6717763 1.9754825 -0.59746999
2.2084601 2.6078176 0.17909366
1.7004976 2.0072894 -0.5113681
2.238764 2.6417286 0.30295336
1.7078702 2.0145659 -0.41830578
2.2332268 2.6323991 0.42386162
2.2182727 2.613847 -0.42093676
2.2577288 2.6593986 0.55252659
1.5631378 1.8405825 -0.2112655
2.266871 2.667335 0.68042493
2.2225194 2.6142237 -0.17982636
2.2485111 2.6438611 0.80127567
2.2391019 2.6318665 -0.060315516
2.2725096 2.6701901 0.93951315
1.6505219 1.9311482 -0.6806941
2.2468252 2.627908 0.060350422
1.671964 1.9548541 -0.59387076
2.23981 2.6178522 0.18055905
1.6863807 1.9703174 -0.50411743
2.2629333 2.642077 0.30434784
1.7042576 1.989095 -0.41486427
2.2542734 2.630105 0.42532405
2.2250128 2.5950515 -0.41971806
2.2767682 2.653537 0.55377805
2.2828994 2.6588068 0.68118817
2.2448328 2.6135466 -0.18055905
2.2669432 2.6383593 0.80307525
2.252852 2.6201062 -0.060315516
2.2990563 2.6729016 0.94468951
1.6425997 1.9022987 -0.67344719
2.278398 2.6376879 0.060839087
1.6745307 1.9372269 -0.59117132
2.2691631 2.624218 0.18181513
1.6851149 1.9480965 -0.50068283
2.2814925 2.6366158 0.3050451
1.7120632 1.9771575 -0.41423854
2.2862089 2.6392722 0.42873639
2.23597 2.5803652 -0.41923055
2.2979321 2.6509359 0.5556553
2.2572951 2.6022205 -0.30138457
2.3070836 2.6586792 0.68424112
2.2768152 2.6228733 -0.18202448
2.3011703 2.6499958 0.81027371
2.2717855 2.6143131 -0.060455136
2.3130202 2.6608267 0.94468951
1.6411049 1.8805724 -0.66878843
2.2921782 2.6257217 0.060839087
1.6782399 1.921095 -0.58892184
2.2933869 2.6243315 0.1826525
1.6888316 1.9318562 -0.49877474
2.2926421 2.6216345 0.30469647
1.6885691 1.929516 -0.40610394
2.3104565 2.6392152 0.4306863
2.0532777 2.344614 -0.38266978
2.3247981 2.6537256 0.55878401
2.2761433 2.5963581 -0.30208179
2.3287401 2.6554193 0.68653083
2.3036878 2.6259308 -0.1830712
2.3252978 2.6496277 0.81387293
2.3065548 2.6264234 -0.061013613
2.3345714 2.657387 0.94779539
1.6432633 1.8632597 -0.66568261
2.3085401 2.616684 0.060908899
1.6689308 1.8903674 -0.58217329
2.3176725 2.6242645 0.18348989
1.691124 1.9141599 -0.49648505
2.32745 2.6334794 0.30748546
1.6580794 1.874778 -0.39640498
2.3281913 2.6315405 0.43141752
2.0563159 2.3234262 -0.38096359
2.3543735 2.6592658 0.56253839
2.2764933 2.5694923 -0.30033869
2.3478196 2.6490672 0.6880573
2.3134322 2.6093476 -0.18275717
2.3417256 2.6403317 0.81477273
2.3322232 2.6277692 -0.061327755
2.3612797 2.6595728 0.95297176
1.6504254 1.8517462 -0.66464734
2.3301942 2.6135156 0.061118327
1.6658314 1.8670626 -0.57767427
2.344681 2.6269934 0.18453661
1.6893545 1.8920991 -0.49305046
2.3465149 2.6272018 0.30818272
1.6454935 1.8410331 -0.39108619
2.3445835 2.6222744 0.431905
2.0393388 2.2800758 -0.37560135
2.3761699 2.6557331 0.56441563
2.3773777 2.6542854 0.69263667
2.3430557 2.6150498 -0.18401325
2.3607202 2.6338396 0.81657231
2.3526254 2.6229656 -0.061502282
2.3829129 2.6558011 0.95607764
1.6600978 1.8430799 -0.66464734
2.3545544 2.6131647 0.061397567
1.6729741 1.8554207 -0.57677448
2.3450258 2.5998507 0.18348989
1.6874028 1.8701082 -0.48961592
2.3789289 2.6355851 0.31062305
1.643195 1.819198 -0.38827038
2.3689287 2.6217451 0.43385491
2.0379372 2.2546406 -0.37316394
2.3900416 2.6432559 0.56441563
2.0960741 2.3165205 -0.27332041
2.401782 2.6534462 0.69568962
2.3620787 2.6086676 -0.18443193
2.3901768 2.6387756 0.82197118
2.3716991 2.6165376 -0.061641898
2.4149523 2.6633241 0.96332449
2.2471075 2.4686742 -0.89447862
2.3843625 2.6185417 0.06181642
1.689229 1.8538375 -0.57902402
2.3801353 2.6111519 0.18516463
1.6799742 1.8423887 -0.4846549
2.3926952 2.6230938 0.31062305
1.6526972 1.8105699 -0.38827038
2.4067168 2.6356926 0.4382422
2.0416832 2.2351441 -0.37170154
2.4198382 2.6482053 0.56817007
2.0947311 2.2908087 -0.2715773
2.4129913 2.6379375 0.69492638
2.3891871 2.6109993 -0.18547864
2.41712 2.6405976 0.8264702
2.3907688 2.6099825 -0.061781518
2.4366968 2.6591876 0.96643037
2.2678492 2.4654059 -0.8975845
2.3980393 2.6060221 0.06181642
2.2902982 2.4871933 -0.78058016
2.4127183 2.6192207 0.18663004
1.7002413 1.8451171 -0.48770785
2.4226019 2.6281085 0.31271479
1.6594762 1.7989874 -0.38764465
2.4312541 2.6347256 0.4401921
2.0412395 2.2112958 -0.36950788
2.4470725 2.6500111 0.57129872
2.0891178 2.2607872 -0.26931125
2.4374323 2.6368001 0.69797933
2.4028261 2.5984535 -0.18547864
2.4441452 2.6422114 0.83096921
2.42342 2.6179731 -0.062270187
2.4532111 2.6492281 0.96746564
2.2991426 2.4733052 -0.90483141
2.4252684 2.6080751 0.062165473
2.3125827 2.4851532 -0.78372949
2.4318419 2.6124001 0.18704872
2.3159621 2.4870458 -0.66058075
2.441762 2.6212189 0.31341204
1.6742609 1.7960531 -0.38889611
2.4423089 2.6190555 0.43970463
2.0446646 2.191869 -0.36804545
2.4690013 2.6458273 0.57317597
2.0941269 2.2425375 -0.26843968
2.4619269 2.6354785 0.70103228
2.2063961 2.3611078 -0.16935916
2.4725852 2.6450369 0.83591807
2.4411931 2.6096287 -0.062374901
2.488169 2.6589158 0.97574782
2.3266098 2.4767222 -0.91052544
2.4443688 2.6011691 0.062305093
2.3322375 2.4801097 -0.78597897
2.4536984 2.6083596 0.18767676
2.3397162 2.4863231 -0.6636337
2.4691088 2.622906 0.31515515
1.6931229 1.7973276 -0.39108619
2.4668791 2.61779 0.44165453
2.0424969 2.1666884 -0.36560807
2.4963737 2.6472344 0.57630467
2.0866973 2.2112539 -0.26599932
2.4891696 2.6368277 0.70484847
2.2543809 2.3872788 -0.17208064
2.4850628 2.6306374 0.83546823
2.472681 2.6157029 -0.06282866
2.5153308 2.6598873 0.98092425
2.3541758 2.4799192 -0.91621947
2.4799876 2.6115353 0.062863566
2.359957 2.4834037 -0.79092795
2.472827 2.6012659 0.18809544
2.3581142 2.4797287 -0.66516018
2.4937947 2.62149 0.31654966
1.7106827 1.7970221 -0.39296341
2.4901352 2.6149001 0.44336072
2.0373833 2.1387162 -0.36268318
2.5156505 2.6398482 0.57755613
2.1133709 2.2161589 -0.26791674
2.5164924 2.6379647 0.70866466
2.4791949 2.5979588 -0.18820012
2.516295 2.6359148 0.84131694
2.4214234 2.534759 -0.061188139
2.5425694 2.6606479 0.98610061
2.3711421 2.4717398 -0.91777241
2.5102427 2.6158276 0.063282423
2.3832929 2.4826732 -0.79452711
2.4947155 2.5969243 0.18872347
2.3805876 2.4772577 -0.66783154
2.51301 2.6141415 0.31724688
1.7348183 1.8040026 -0.39640498
2.5299459 2.6290023 0.44799173
2.0430472 2.1222982 -0.36170825
2.5308075 2.6280637 0.577869
2.2047336 2.2886572 -0.27802682
2.5520704 2.6473682 0.71477056
2.5149467 2.6079447 -0.18987487
2.5368273 2.6297157 0.84356648
2.1981575 2.2778516 -0.055254318
2.5506372 2.642185 0.98403007
2.3921185 2.4676137 -0.92087817
2.5183353 2.5969071 0.063142806
2.4098301 2.4841464 -0.79902619
2.5133903 2.589998 0.18914215
2.4040358 2.4764457 -0.67088449
2.534992 2.6095231 0.31829277
1.9108164 1.9663095 -0.4342621
2.5473716 2.6204333 0.44872296
2.0509942 2.1090848 -0.36122078
2.5665774 2.6374257 0.58287489
2.4529471 2.5197814 -0.30765978
2.5626981 2.6316035 0.71400726
2.5420516 2.6094878 -0.19092159
2.5705049 2.6377776 0.85031497
2.2547314 2.3121226 -0.056371275
2.5833216 2.6481543 0.99127698
2.419446 2.4706569 -0.9265722
2.5454414 2.5984118 0.063491859
2.4268954 2.4756699 -0.80037582
2.5632761 2.6138785 0.19186363
2.432092 2.4792411 -0.67508227
2.564914 2.613723 0.3203845
1.9127809 1.9478216 -0.43238491
2.5652297 2.6113086 0.44945419
2.0480962 2.0841582 -0.35878339
2.59097 2.635673 0.58537781
2.524791 2.5665572 -0.31498083
2.5984738 2.6405394 0.72011316
2.5500743 2.5904496 -0.1905029
2.5938528 2.6340015 0.85346431
2.3369856 2.3715022 -0.058116514
2.6107144 2.648349 0.99645334
2.4432192 2.468941 -0.93071336
2.5758927 2.6021028 0.063910715
2.4480529 2.4712362 -0.80307525
2.5797379 2.6032596 0.19207297
2.458863 2.4804142 -0.67889845
2.6038158 2.6257234 0.32352212
1.927129 1.9419851 -0.43332353
2.5956488 2.6147478 0.45237905
2.037998 2.0522776 -0.35512727
2.624227 2.6416891 0.58975804
2.5747149 2.5900412 -0.31951293
2.6233404 2.6380329 0.72316611
2.5607862 2.5742295 -0.19029355
2.6199794 2.632817 0.85751343
2.4537876 2.4640875 -0.06069947
2.6436319 2.653805 1.0037004
2.4725056 2.4725065 -0.93692499
2.6064532 2.6055443 0.064329572
2.4802606 2.4776657 -0.80937392
2.6102927 2.6066515 0.19332905
2.4801524 2.4758284 -0.68118817
2.6288111 2.6233122 0.3249166
1.9344724 1.9290788 -0.43269777
2.6346099 2.6263473 0.45676634
2.0487173 2.0415773 -0.35512727
2.6352229 2.6251252 0.58913231
2.5938907 2.5821455 -0.32021019
2.6538155 2.6408796 0.72774553
2.3859053 2.3734467 -0.17637219
2.6383321 2.6227241 0.85886312
2.5744557 2.5583324 -0.063352235
2.6602337 2.6426477 1.0047356
2.4885941 2.4618094 -0.93796021
2.6290441 2.5998402 0.064539
2.5042868 2.4756045 -0.81297308
2.6381121 2.6069868 0.19437577
2.5074811 2.4761679 -0.68500435
2.648638 2.6146491 0.32561383
1.9445468 1.9189231 -0.43269777
2.656805 2.6208806 0.45822877
2.0823514 2.0527613 -0.35902712
2.669086 2.6302397 0.59351242
2.307888 2.2735047 -0.28343046
2.6676071 2.6269476 0.72774553
2.3944416 2.3562999 -0.17605817
2.6603644 2.6170733 0.86156255
2.6419964 2.5980971 -0.064678617
2.6937826 2.6471736 1.0119824
2.5138736 2.4609089 -0.94261903
2.6540534 2.5972288 0.064818241
2.5311456 2.4760852 -0.8174721
2.660748 2.6010516 0.19500379
2.5344539 2.4767261 -0.68882048
2.6736927 2.6118839 0.32700834
1.9503282 1.9045749 -0.43175918
2.6794696 2.6147869 0.4596912
2.0930715 2.0418296 -0.35902712
2.7026212 2.635536 0.59789258
2.2997863 2.2419198 -0.28099012
2.693032 2.6234353 0.73079848
2.4353631 2.3715994 -0.17815161
2.6907876 2.6194193 0.86696136
2.6698952 2.5981736 -0.065027662
2.7112999 2.6375475 1.0135354
2.5433753 2.4638422 -0.94883066
2.6676166 2.5832961 0.064818241
2.5524759 2.4709315 -0.82017154
2.6939719 2.6069968 0.1964692
2.5624781 2.4788823 -0.69301832
2.7045221 2.614466 0.32910007
2.0767531 2.0068994 -0.45741442
2.6983812 2.606708 0.46066615
2.0890999 2.0174196 -0.35658973
2.7277544 2.6323235 0.60039556
2.208252 2.13025 -0.26843968
2.7288861 2.631577 0.73690438
2.6687753 2.5727108 -0.19427109
2.7404954 2.6409242 0.87865883
2.6949852 2.5952563 -0.065306902
2.7362084 2.6340315 1.0176765
2.5683618 2.4629726 -0.95348942
2.7153029 2.6029723 0.065655954
2.5780427 2.4696667 -0.82422066
2.7248955 2.6094315 0.19772527
2.5867682 2.4762919 -0.69607127
2.7263565 2.6090095 0.33014596
2.120069 2.0273986 -0.4646104
2.7234714 2.6035182 0.46261609
2.1010692 2.0078256 -0.35683349
2.755327 2.6321282 0.60352427
2.2770209 2.1736891 -0.27541214
2.7454686 2.6199627 0.73766762
2.7053335 2.5807581 -0.19594584
2.7571054 2.6292295 0.87955862
2.7259102 2.5976627 -0.065725766
2.772342 2.6409895 1.0259588
2.5994413 2.4667766 -0.96021873
2.7405 2.5997303 0.065935194
2.6064968 2.47088 -0.82916957
2.7443192 2.6006248 0.19814396
2.6053987 2.4681151 -0.69759774
2.7689145 2.6220958 0.33363217
2.1378288 2.0230598 -0.46617478
2.7659092 2.6165044 0.46749085
2.1216497 2.0063441 -0.35853964
2.774812 2.6230943 0.60477573
2.1522279 2.0331268 -0.25902686
2.7762768 2.6217277 0.74224705
2.7391412 2.5857527 -0.19741124
2.7736692 2.6174319 0.88045847
2.7452927 2.5888429 -0.065865383
2.8001897 2.6396885 1.0311351
2.6179538 2.4584229 -0.96228927
2.759907 2.5908196 0.066074811
2.6364532 2.4731987 -0.83456844
2.7753813 2.6026137 0.19940001
2.6311784 2.4665222 -0.70103228
2.7767899 2.6021135 0.33293492
2.1628122 2.0253394 -0.46930346
2.7853673 2.6074135 0.46846578
2.1437209 2.0060594 -0.36048955
2.8000505 2.6193235 0.60727865
2.1424665 2.0027826 -0.25658652
2.804312 2.620558 0.74606317
2.7555611 2.5741034 -0.1976206
2.8101237 2.6241546 0.88765687
2.2880428 2.1351295 -0.054626033
2.8224478 2.6328981 1.034241
2.6406965 2.4538865 -0.9659127
2.7822242 2.5845001 0.066284239
2.6665058 2.4752696 -0.83996725
2.7948258 2.5934813 0.1998187
2.6584496 2.4660642 -0.70484847
2.8020644 2.598376 0.33432943
2.1690397 2.0099599 -0.46836486
2.8281076 2.6197739 0.47334057
2.1716723 2.010993 -0.36341441
2.8369203 2.6260979 0.6122846
2.155849 1.9942428 -0.25693512
