# .PCD v0.7 - Point Cloud Data file format
VERSION 0.7
FIELDS x y z intensity
SIZE 4 4 4 4
TYPE F F F F
COUNT 1 1 1 1
WIDTH 237
HEIGHT 1
VIEWPOINT 0 0 0 1 0 0 0
POINTS 237
DATA ascii
2.2338102 -0.62999964 -0.53583342 0
2.2388897 -0.632276 -0.45221734 0
2.2231014 -0.639144 -0.53403378 0
2.1770589 -0.64942318 -0.60874242 0
2.2162864 -0.66238874 -0.53403378 0
2.2175136 -0.66359884 -0.44992763 0
2.1680841 -0.65912765 -0.60718954 0
2.1885533 -0.66660273 -0.52818507 0
2.2121308 -0.67462784 -0.44954604 0
2.1498401 -0.66589785 -0.60304838 0
2.1757271 -0.67516494 -0.52593553 0
2.1935692 -0.6815412 -0.44649309 0
2.1665878 -0.68478578 -0.52458584 0
2.171253 -0.68709403 -0.4426769 0
2.1298745 -0.6842379 -0.59942496 0
2.1518426 -0.69253856 -0.52188647 0
2.1638885 -0.69724894 -0.44191366 0
2.1261411 -0.69575155 -0.59942496 0
2.1481869 -0.70379597 -0.52188647 0
2.1488922 -0.70527327 -0.43962395 0
2.1151373 -0.70443273 -0.59735435 0
2.1258619 -0.70924109 -0.51738745 0
2.1488941 -0.71775901 -0.44038719 0
2.1150794 -0.71673787 -0.59838963 0
2.1184282 -0.71910948 -0.5164876 0
2.137671 -0.72647381 -0.43886071 0
2.0985131 -0.72339547 -0.5947662 0
2.1129193 -0.72918689 -0.5160377 0
2.1189938 -0.73252505 -0.43580776 0
2.0910504 -0.73309493 -0.59373093 0
2.1041455 -0.73933583 -0.43351805 0
2.1020947 -0.75100356 -0.4338997 0
2.0670431 -0.74866724 -0.58907217 0
2.0645671 -0.74899334 -0.50703967 0
2.0999787 -0.7626698 -0.43428129 0
2.043153 -0.75213873 -0.5833782 0
2.0642738 -0.76114154 -0.50793946 0
2.0849059 -0.76957589 -0.43199161 0
2.0337584 -0.76079571 -0.58182526 0
2.0602601 -0.77193946 -0.50793946 0
2.0734949 -0.77772385 -0.4304651 0
2.0225236 -0.76868868 -0.57975465 0
2.0489049 -0.77994323 -0.50613987 0
2.0583873 -0.78437549 -0.42817542 0
2.0112624 -0.77648485 -0.57768416 0
2.0429757 -0.78995776 -0.50568998 0
2.0579138 -0.79655969 -0.42893866 0
2.0071692 -0.78700519 -0.57768416 0
2.0442531 -0.80278081 -0.50703967 0
2.0390975 -0.80157781 -0.42588571 0
1.9994315 -0.79607463 -0.57664889 0
2.036696 -0.81297141 -0.42626733 0
2.0176711 -0.81683111 -0.50254071 0
2.0214942 -0.81920016 -0.42397761 0
1.9927726 -0.81770194 -0.5771665 0
2.0079591 -0.82516217 -0.50119096 0
2.0062833 -0.82529211 -0.4216879 0
1.9884638 -0.82812476 -0.5771665 0
2.0054095 -0.83641452 -0.50164086 0
1.9983112 -0.83427292 -0.42092466 0
1.9591882 -0.82799649 -0.56991959 0
1.9776726 -0.83702904 -0.49579209 0
1.9866847 -0.84166116 -0.41939822 0
1.9654788 -0.84281135 -0.57302535 0
1.9661005 -0.84429693 -0.49399251 0
1.9786431 -0.8505013 -0.41863495 0
1.953953 -0.85000849 -0.57095486 0
1.9634395 -0.85535812 -0.49444243 0
1.9633652 -0.85614133 -0.41634527 0
1.9335687 -0.85320854 -0.5662961 0
1.959085 -0.86528504 -0.49444243 0
1.9357222 -0.87930501 -0.49084321 0
1.9462559 -0.88490951 -0.41558203 0
1.906042 -0.87668133 -0.56215501 0
1.9240116 -0.88616729 -0.48904356 0
1.9487273 -0.89837563 -0.41710848 0
1.9031762 -0.88746566 -0.56267262 0
1.9105166 -0.89210665 -0.48679405 0
1.9439967 -0.90856671 -0.41710848 0
1.8810381 -0.8891626 -0.55749625 0
1.9058194 -0.90209788 -0.48679405 0
1.9143738 -0.90696514 -0.41176581 0
1.9221468 -0.91188031 -0.33695987 0
1.8693879 -0.89566052 -0.5554257 0
1.9203969 -0.92133671 -0.491743 0
1.8972104 -0.91102743 -0.40909451 0
1.9084448 -0.91765207 -0.33539551 0
1.8646725 -0.90543628 -0.5554257 0
1.9050311 -0.92626637 -0.48904356 0
1.8994755 -0.92438507 -0.41062099 0
1.9071652 -0.9293626 -0.33602124 0
1.8547062 -0.91262853 -0.55387276 0
1.873934 -0.92330891 -0.48229504 0
1.8951882 -0.93583727 -0.33476979 0
1.8533598 -0.92405111 -0.55490804 0
1.869074 -0.93310803 -0.48229504 0
1.8867291 -0.94397998 -0.33414406 0
1.8624238 -0.9420023 -0.48184517 0
1.8759636 -0.94967306 -0.40871289 0
1.8835224 -0.9547388 -0.33445692 0
1.8592001 -0.95262951 -0.48229504 0
1.8622307 -0.9550032 -0.40680483 0
1.86444 -0.95736939 -0.331954 0
1.8163203 -0.94149095 -0.54817873 0
1.8299718 -0.94978321 -0.47599643 0
1.8484938 -0.96021563 -0.40489674 0
1.8523915 -0.96347225 -0.33070248 0
1.82847 -0.95996827 -0.5533551 0
1.8318733 -0.96297884 -0.47779605 0
1.8469157 -0.97170937 -0.40565994 0
1.8473214 -0.97315806 -0.33070248 0
1.8029499 -0.95864552 -0.54714346 0
1.8132131 -0.9649145 -0.47419682 0
1.8279414 -0.97398072 -0.40260699 0
1.8423722 -0.98249573 -0.33070248 0
1.794504 -0.96624082 -0.54610825 0
1.818429 -0.97994208 -0.47689623 0
1.8195323 -0.98135638 -0.40184379 0
1.8372024 -0.99212885 -0.33070248 0
1.7912866 -0.97623569 -0.54662579 0
1.8115625 -0.98851639 -0.47644633 0
1.8143691 -0.99086988 -0.40184379 0
1.8163838 -0.99320531 -0.3278867 0
1.7743106 -0.97906804 -0.54300237 0
1.8097734 -0.99987304 -0.47734615 0
1.8077022 -1.0007886 -0.32726091 0
1.8041604 -1.0112057 -0.32757381 0
1.7915715 -1.0156873 -0.40031728 0
1.7988409 -1.0206385 -0.32757381 0
1.7484792 -1.0013635 -0.53989661 0
1.7835221 -1.0226732 -0.47464675 0
1.7760124 -1.0191911 -0.3980276 0
1.7932925 -1.030356 -0.32757381 0
1.7263238 -1.0011175 -0.53472012 0
1.7680303 -1.0261285 -0.47194731 0
1.7619847 -1.0238535 -0.39611951 0
1.7742122 -1.031787 -0.32507086 0
1.7229009 -1.01082 -0.53523779 0
1.7508712 -1.0284626 -0.46879801 0
1.760165 -1.0347484 -0.39688274 0
1.761976 -1.0370549 -0.3238194 0
1.722568 -1.0227861 -0.53679073 0
1.7387615 -1.0336329 -0.46699843 0
1.7479738 -1.0399351 -0.39535624 0
1.7599159 -1.0482879 -0.32444513 0
1.7138774 -1.0298015 -0.53575546 0
1.7335078 -1.0424201 -0.46699843 0
1.7357771 -1.0450227 -0.39382979 0
1.7495116 -1.0541239 -0.3235065 0
1.7035099 -1.0357502 -0.53420252 0
1.7263612 -1.0504696 -0.4665485 0
1.7371726 -1.0578793 -0.39535624 0
1.7422816 -1.0622414 -0.32319364 0
1.688372 -1.0382873 -0.5310967 0
1.7175182 -1.0574509 -0.46564871 0
1.7282898 -1.0661638 -0.32162929 0
1.6927541 -1.0532368 -0.53420252 0
1.7160034 -1.0697811 -0.39306656 0
1.7159809 -1.0710149 -0.32037783 0
1.7203419 -1.0850351 -0.39535624 0
1.7136898 -1.0820942 -0.32100356 0
1.6800025 -1.0698673 -0.53368485 0
1.6842649 -1.0738218 -0.46114969 0
1.6848462 -1.0750197 -0.38848713 0
1.7046713 -1.0889255 -0.32037783 0
1.6613853 -1.0702795 -0.52954376 0
1.6818945 -1.0847381 -0.46204948 0
1.6758952 -1.0816975 -0.38772389 0
1.7022644 -1.0999804 -0.32100356 0
1.6428106 -1.0705261 -0.52540272 0
1.6827205 -1.0977889 -0.46384907 0
1.6734964 -1.092604 -0.38848713 0
1.6832539 -1.100232 -0.31850061 0
1.6420217 -1.0823026 -0.5269556 0
1.6671903 -1.1001446 -0.46114969 0
1.6677526 -1.1013515 -0.38848713 0
1.6741744 -1.1068516 -0.31787488 0
1.6363322 -1.0908854 -0.5269556 0
1.6581652 -1.1066952 -0.46024984 0
1.6619631 -1.1100686 -0.38848713 0
1.6683559 -1.1156023 -0.31787488 0
1.6321998 -1.1005181 -0.52747321 0
1.6491176 -1.1131816 -0.45935005 0
1.646367 -1.1121616 -0.38619745 0
1.6641282 -1.1254292 -0.31818774 0
1.6104542 -1.0981656 -0.52229685 0
1.6549516 -1.1318967 -0.31756201 0
1.6046822 -1.1065829 -0.52229685 0
1.6327559 -1.1293094 -0.31443331 0
1.618646 -1.1300232 -0.45575082 0
1.6254759 -1.1356356 -0.38543418 0
1.6203457 -1.1333143 -0.31318185 0
1.5819548 -1.1155329 -0.51867342 0
1.6254431 -1.1474739 -0.45935005 0
1.6323354 -1.1531935 -0.38848713 0
1.6240662 -1.1486268 -0.31505907 0
1.5996865 -1.1406239 -0.526438 0
1.6130683 -1.1514403 -0.45755047 0
1.6134948 -1.152595 -0.38543418 0
1.6067822 -1.1490711 -0.31286895 0
1.5811558 -1.139946 -0.52229685 0
1.6006967 -1.1553084 -0.45575082 0
1.5947056 -1.1518313 -0.38238126 0
1.6071469 -1.1620982 -0.31412044 0
1.5626764 -1.1391054 -0.51815575 0
1.6024963 -1.1694175 -0.45800033 0
1.5886528 -1.1601652 -0.38238126 0
1.591472 -1.1635021 -0.31224322 0
1.5629112 -1.1518564 -0.5202263 0
1.579102 -1.1650655 -0.45305145 0
1.6015093 -1.1824611 -0.38696066 0
1.5917125 -1.1765159 -0.31349471 0
1.5661534 -1.1669496 -0.52333212 0
1.56517 -1.1674919 -0.45080194 0
1.5858563 -1.1837839 -0.38467094 0
1.5692803 -1.182108 -0.526438 0
1.5637032 -1.1791909 -0.4521516 0
1.5945712 -1.2055273 -0.24544489 0
1.5446256 -1.1762636 -0.5202263 0
1.5621569 -1.1909065 -0.45350131 0
1.5683264 -1.1977755 -0.31255612 0
1.600855 -1.2235034 -0.2473948 0
1.5543566 -1.1978801 -0.45305145 0
1.553075 -1.1977568 -0.3812364 0
1.5573425 -1.2023491 -0.31161749 0
1.5771472 -1.2185181 -0.24471366 0
1.5357647 -1.1964214 -0.44945222 0
1.5436856 -1.2034581 -0.38047317 0
1.5556976 -1.2141328 -0.31255612 0
1.5107757 -1.1884363 -0.51504993 0
1.5248863 -1.2008291 -0.4481025 0
1.5404471 -1.2139547 -0.3812364 0
1.5415646 -1.2161443 -0.31099173 0
1.5045323 -1.1963303 -0.51504993 0
1.5216271 -1.2112242 -0.4490023 0
1.4952362 -1.2017711 -0.51401466 0
1.4889233 -1.2095836 -0.51401466 0
