# .PCD v0.7 - Point Cloud Data file format
VERSION 0.7
FIELDS x y z intensity
SIZE 4 4 4 4
TYPE F F F F
COUNT 1 1 1 1
WIDTH 385
HEIGHT 1
VIEWPOINT 0 0 0 1 0 0 0
POINTS 385
DATA ascii
2.5447497 0.36851823 -0.68897635 0
2.6749711 0.36928001 -0.42769188 0
2.504431 0.3359431 -0.67707068 0
2.6944914 0.35760745 -0.43050769 0
2.7236128 0.36050498 -0.33733436 0
2.7654188 0.3645654 -0.24403608 0
2.5157361 0.32405779 -0.67965883 0
2.5900879 0.33225676 -0.6028688 0
2.6309166 0.33656216 -0.51556593 0
2.8474929 0.35921678 -0.15041354 0
2.5308192 0.31253928 -0.68328232 0
2.5840554 0.31774011 -0.60106921 0
2.6170533 0.32087162 -0.51251298 0
2.6627936 0.32506475 -0.42487606 0
2.819592 0.34070939 -0.14884347 0
2.5740182 0.30328834 -0.59836978 0
2.612848 0.30647662 -0.5113681 0
2.6781387 0.31318864 -0.42706612 0
2.7210522 0.31676298 -0.33635944 0
2.776685 0.3222557 -0.24455902 0
2.8372099 0.32777467 -0.14968085 0
2.5473907 0.28753707 -0.68690574 0
2.5697615 0.28915384 -0.59702009 0
2.6601105 0.29696837 -0.42393744 0
2.7743735 0.30727488 -0.24421038 0
2.8110394 0.31034264 -0.14821544 0
2.5219233 0.27174205 -0.67965883 0
2.5731299 0.27635112 -0.59746999 0
2.6635439 0.28371063 -0.42425033 0
2.7679677 0.29239097 -0.24351314 0
2.8185849 0.29624575 -0.14852946 0
2.515624 0.25774682 -0.67758828 0
2.5842347 0.26386508 -0.59971952 0
2.6231062 0.26690772 -0.51251298 0
2.6630273 0.26956117 -0.42393744 0
2.7315211 0.2755312 -0.33709061 0
2.765496 0.27749568 -0.24316452 0
2.8299849 0.28297031 -0.14905281 0
2.5323215 0.24606584 -0.68172938 0
2.5701067 0.24837919 -0.5961203 0
2.6565814 0.25439534 -0.42268598 0
2.7250676 0.25999504 -0.33611569 0
2.7669568 0.26252985 -0.24316452 0
2.8135791 0.26596114 -0.14811078 0
2.5258806 0.23209587 -0.67965883 0
2.5674908 0.23456378 -0.59522051 0
2.6257992 0.23896664 -0.51251298 0
2.6578767 0.2404829 -0.42268598 0
2.7105751 0.24429716 -0.33416575 0
2.7643247 0.24768117 -0.24281588 0
2.8069756 0.25051641 -0.14769208 0
2.532835 0.21936814 -0.68121177 0
2.5686836 0.22111811 -0.59522051 0
2.6191902 0.2245436 -0.51098651 0
2.6590996 0.22656263 -0.42268598 0
2.7039053 0.22942957 -0.33319083 0
2.773525 0.23387438 -0.24351314 0
2.8122294 0.23615089 -0.14790143 0
2.5243213 0.20531863 -0.67862362 0
2.5736911 0.20797782 -0.5961203 0
2.6105454 0.21004011 -0.50907844 0
2.670095 0.2134244 -0.42425033 0
2.7169423 0.21621458 -0.33465323 0
2.7528634 0.2176228 -0.24159572 0
2.8114364 0.22126442 -0.14779675 0
2.7380691 0.2020326 -0.24020122 0
2.818532 0.20698054 -0.14811078 0
2.5224788 0.17860192 -0.67758828 0
2.612602 0.18269068 -0.50907844 0
2.8076212 0.19140443 -0.14748274 0
2.5118134 0.16463336 -0.67448246 0
2.5805297 0.16778044 -0.59702009 0
2.6311548 0.17014974 -0.51251298 0
2.6790318 0.17183734 -0.42518893 0
2.7100978 0.17287886 -0.33343455 0
2.7917335 0.17661889 -0.24473332 0
2.8045983 0.1764513 -0.14727339 0
2.5203543 0.15194395 -0.67655301 0
2.5852635 0.1544987 -0.59791994 0
2.5928137 0.15404168 -0.50488061 0
2.6562314 0.15641381 -0.42143452 0
2.7030389 0.15822336 -0.3324596 0
2.7886419 0.16176917 -0.24438471 0
2.8034897 0.16164866 -0.14716873 0
2.5114706 0.13821422 -0.6739648 0
2.5743618 0.14032342 -0.59522051 0
2.5935848 0.14046328 -0.50488061 0
2.6649041 0.14292647 -0.42268598 0
2.7097774 0.14438592 -0.33319083 0
2.7695544 0.14611691 -0.24264158 0
2.8042977 0.14696704 -0.14716873 0
2.504442 0.12467892 -0.67189431 0
2.5633829 0.12626778 -0.59252107 0
2.604089 0.12736177 -0.50678873 0
2.6577237 0.12859015 -0.42143452 0
2.7065306 0.13000342 -0.33270332 0
2.7344592 0.12990998 -0.23950398 0
2.8209891 0.13303538 -0.1480061 0
2.5089202 0.11173673 -0.67292953 0
2.5679026 0.11301645 -0.59342086 0
2.6027589 0.11363905 -0.50640708 0
2.6583605 0.11467222 -0.42143452 0
2.7091575 0.11591605 -0.33294708 0
2.7450547 0.11601216 -0.24037553 0
2.8056831 0.11759207 -0.14716873 0
2.8062601 0.10290089 -0.14716873 0
2.6495438 0.086505003 -0.41987014 0
2.8107533 0.08833237 -0.14737807 0
2.5122972 0.072368957 -0.67344719 0
2.573257 0.072776593 -0.59432071 0
2.6042228 0.072742656 -0.50640708 0
2.6677322 0.073118828 -0.42268598 0
2.7245345 0.073724017 -0.33465323 0
2.7525134 0.073038943 -0.24089848 0
2.8051875 0.073456854 -0.14706406 0
2.516504 0.059305493 -0.67448246 0
2.579437 0.059887778 -0.5956704 0
2.6241953 0.059552282 -0.51022327 0
2.6344953 0.058864743 -0.41736722 0
2.7328217 0.059630223 -0.33562821 0
2.7508559 0.059063103 -0.24072415 0
2.8135207 0.058934838 -0.14748274 0
2.5206432 0.046198748 -0.67551774 0
2.5543857 0.045925301 -0.5898217 0
2.6205373 0.046199664 -0.50946003 0
2.6268668 0.044935495 -0.41611573 0
2.7092707 0.045399178 -0.33270332 0
2.7551117 0.044724453 -0.24107277 0
2.8097889 0.044631056 -0.14727339 0
2.524708 0.033490907 -0.67655301 0
2.5506938 0.032499928 -0.58892184 0
2.6246696 0.032527477 -0.51022327 0
2.6487937 0.031439424 -0.4195573 0
2.7015314 0.031121014 -0.33172837 0
2.7513235 0.030253919 -0.24072415 0
2.7999985 0.029811718 -0.14675003 0
2.509398 0.019709937 -0.67241186 0
2.5586238 0.019203452 -0.59072149 0
2.5992856 0.018146424 -0.50526226 0
2.6528726 0.017594516 -0.42018303 0
2.7076154 0.016539907 -0.3324596 0
2.7574213 0.015882973 -0.24124709 0
2.7981215 0.014652359 -0.14664535 0
2.5113986 0.0065740054 -0.67292953 0
2.5625868 0.0058147586 -0.59162128 0
2.6013081 0.0045406558 -0.50564384 0
2.6489778 0.0036992501 -0.4195573 0
2.7395356 0.001433852 -0.23967829 0
2.8021545 -0 -0.14685471 0
2.8101075 -0.014223353 -0.14727339 0
2.5094011 -0.019271197 -0.67241186 0
2.6169224 -0.022380762 -0.50869679 0
2.7115157 -0.025556188 -0.33294708 0
2.7413924 -0.027273305 -0.23985259 0
2.7940173 -0.028772248 -0.14643602 0
2.5015395 -0.03231027 -0.67034137 0
2.562362 -0.034437746 -0.59162128 0
2.5932126 -0.035757743 -0.50411743 0
2.6645105 -0.038136277 -0.42206025 0
2.6914961 -0.03946222 -0.33050969 0
2.7412119 -0.041626759 -0.23985259 0
2.7938282 -0.043401226 -0.14643602 0
2.5071304 -0.045512985 -0.67189431 0
2.55825 -0.047780927 -0.59072149 0
2.5890639 -0.049260523 -0.50335413 0
2.6524241 -0.051855367 -0.42018303 0
2.6892676 -0.053514756 -0.33026594 0
2.7568922 -0.056304533 -0.24124709 0
2.7935629 -0.058029011 -0.14643602 0
2.4991326 -0.058458894 -0.66982371 0
2.5618608 -0.061268363 -0.59162128 0
2.5828826 -0.062673226 -0.50220931 0
2.6889505 -0.067594931 -0.33026594 0
2.7446094 -0.070432074 -0.24020122 0
2.7932205 -0.072655216 -0.14643602 0
2.4968612 -0.071488179 -0.6693061 0
2.5654008 -0.074794911 -0.59252107 0
2.5942934 -0.076543637 -0.50449902 0
2.6359398 -0.079153799 -0.41768005 0
2.6964967 -0.081914358 -0.33124092 0
2.7402201 -0.08467871 -0.23985259 0
2.8047798 -0.087653741 -0.14706406 0
2.4983833 -0.084626071 -0.66982371 0
2.5552361 -0.087891281 -0.59027153 0
2.5899329 -0.089989871 -0.50373578 0
2.6374633 -0.093024045 -0.41799295 0
2.6960309 -0.096031994 -0.33124092 0
2.7883148 -0.10175556 -0.14622667 0
2.494045 -0.097555339 -0.66878843 0
2.7837529 -0.1161871 -0.14601734 0
2.6323981 -0.12045729 -0.41736722 0
2.7524834 -0.12835944 -0.24107277 0
2.7870965 -0.13094862 -0.14622667 0
2.5613258 -0.12840664 -0.59207118 0
2.5980036 -0.13115458 -0.50564384 0
2.6534321 -0.13534568 -0.42080876 0
2.7021196 -0.13877481 -0.33221585 0
2.7358561 -0.14194375 -0.23967829 0
2.7903614 -0.14574832 -0.14643602 0
2.4902761 -0.13661224 -0.66827077 0
2.5664551 -0.14213917 -0.59342086 0
2.6012018 -0.14497432 -0.50640708 0
2.6152143 -0.14712894 -0.41486427 0
2.6855004 -0.15202355 -0.33026594 0
2.7271185 -0.15581204 -0.23898104 0
2.8015242 -0.16104427 -0.14706406 0
2.5049536 -0.1505767 -0.67241186 0
2.5423338 -0.15415971 -0.58802205 0
2.612165 -0.15930924 -0.50869679 0
2.6144083 -0.16082008 -0.41486427 0
2.7124062 -0.16779865 -0.33367831 0
2.736208 -0.17070931 -0.23985259 0
2.7846956 -0.17471024 -0.14622667 0
2.5041308 -0.16369048 -0.67241186 0
2.5492702 -0.16798171 -0.5898217 0
2.5917053 -0.17168653 -0.50488061 0
2.6332402 -0.17582285 -0.41799295 0
2.691684 -0.18066896 -0.33124092 0
2.7372646 -0.18516812 -0.24002692 0
2.7877281 -0.18955941 -0.14643602 0
2.487823 -0.17571095 -0.66827077 0
2.5425241 -0.18091233 -0.58847195 0
2.6005621 -0.18595436 -0.50678873 0
2.6401644 -0.19017568 -0.41924441 0
2.6946609 -0.19504668 -0.33172837 0
2.7322834 -0.19920807 -0.23967829 0
2.7866974 -0.20415327 -0.14643602 0
2.4887953 -0.18888088 -0.66878843 0
2.5512574 -0.19496486 -0.59072149 0
2.7895722 -0.21905422 -0.14664535 0
2.7003839 -0.22391003 -0.33270332 0
2.739975 -0.22863743 -0.24054985 0
2.7883871 -0.23365733 -0.14664535 0
2.5797179 -0.22524235 -0.50335413 0
2.6427548 -0.23214066 -0.42018303 0
2.6932425 -0.23752293 -0.33197212 0
2.7347708 -0.24262853 -0.24020122 0
2.7831469 -0.24789961 -0.14643602 0
2.4874454 -0.22812632 -0.6693061 0
2.5556421 -0.23573016 -0.59252107 0
2.584368 -0.23928963 -0.50449902 0
2.6375697 -0.24560857 -0.4195573 0
2.6781261 -0.25032815 -0.33026594 0
2.7294958 -0.25657144 -0.23985259 0
2.7818105 -0.26246867 -0.14643602 0
2.4958308 -0.24207988 -0.67189431 0
2.5504937 -0.24872988 -0.59162128 0
2.5772178 -0.25224426 -0.50335413 0
2.6441109 -0.26018924 -0.42080876 0
2.6807299 -0.26473749 -0.33075345 0
2.7439759 -0.27243423 -0.24124709 0
2.784373 -0.2774266 -0.14664535 0
2.48492 -0.25416178 -0.6693061 0
2.5646648 -0.26367518 -0.59522051 0
2.573909 -0.2655336 -0.50297254 0
2.6584311 -0.27566004 -0.42331171 0
2.6753581 -0.2783592 -0.33026594 0
2.7306225 -0.2855545 -0.24020122 0
2.7828822 -0.29200163 -0.14664535 0
2.4835553 -0.26716924 -0.6693061 0
2.5554991 -0.27626225 -0.59342086 0
2.5744348 -0.27921852 -0.50335413 0
2.6255312 -0.28615129 -0.41830578 0
2.6837306 -0.29344228 -0.33148462 0
2.7852859 -0.30700636 -0.14685471 0
2.4898009 -0.28103614 -0.67137665 0
2.54245 -0.28787774 -0.59072149 0
2.5768392 -0.29313815 -0.50411743 0
2.6122737 -0.29809284 -0.4164286 0
2.7796719 -0.32112736 -0.14664535 0
2.4902651 -0.29386091 -0.67189431 0
2.7397618 -0.32912195 -0.24142142 0
2.7780108 -0.33519235 -0.14664535 0
2.6365087 -0.3283945 -0.42080876 0
2.680877 -0.33487126 -0.33172837 0
2.7399778 -0.34371069 -0.24159572 0
2.7801812 -0.35023263 -0.14685471 0
2.5511432 -0.32952473 -0.59387076 0
2.585604 -0.33489358 -0.50678873 0
2.6170633 -0.34036165 -0.41799295 0
2.6987104 -0.35193828 -0.33416575 0
2.718323 -0.35594353 -0.23985259 0
2.7861664 -0.36631107 -0.14727339 0
2.4795399 -0.33260328 -0.67034137 0
2.5798631 -0.34835267 -0.50602549 0
2.6034389 -0.35292414 -0.41611573 0
2.6888988 -0.36546504 -0.33319083 0
2.7124093 -0.37010711 -0.23950398 0
2.7881677 -0.38143569 -0.14748274 0
2.481591 -0.3461152 -0.67137665 0
2.5320511 -0.3545047 -0.59027153 0
2.5780039 -0.36185595 -0.50602549 0
2.6230719 -0.36958244 -0.4195573 0
2.6908793 -0.38009432 -0.33367831 0
2.7262154 -0.38654166 -0.24089848 0
2.7703133 -0.39378068 -0.14664535 0
2.4759212 -0.35855025 -0.67034137 0
2.5263033 -0.36719698 -0.58937174 0
2.5760739 -0.37534937 -0.50602549 0
2.6211009 -0.38331166 -0.4195573 0
2.6790316 -0.39273876 -0.3324596 0
2.7142985 -0.3993606 -0.24002692 0
2.7682135 -0.40828049 -0.14664535 0
2.4892931 -0.37380421 -0.67448246 0
2.5339811 -0.38187152 -0.59162128 0
2.5837793 -0.39029863 -0.50793356 0
2.6210108 -0.39732653 -0.41987014 0
2.7739351 -0.42397624 -0.14706406 0
2.4777572 -0.38534856 -0.67189431 0
2.5377922 -0.39559266 -0.59297097 0
2.7080741 -0.42697901 -0.23985259 0
2.7756226 -0.43911889 -0.14727339 0
2.4967561 -0.4012565 -0.67758828 0
2.575747 -0.41625735 -0.50717038 0
2.6843648 -0.43621472 -0.33392206 0
2.7058783 -0.44068027 -0.23985259 0
2.7812488 -0.45445013 -0.14769208 0
2.5871625 -0.43155006 -0.50984168 0
2.6165476 -0.43785989 -0.42018303 0
2.6821225 -0.44979584 -0.33392206 0
2.7349701 -0.46013096 -0.24264158 0
2.7670965 -0.46652919 -0.14706406 0
2.4963002 -0.42759728 -0.67862362 0
2.5332618 -0.435294 -0.59342086 0
2.588737 -0.44575676 -0.51060492 0
2.6258986 -0.45357147 -0.42206025 0
2.6679943 -0.46180177 -0.3324596 0
2.7364495 -0.47512648 -0.24299021 0
2.7606804 -0.48032647 -0.14685471 0
2.4788082 -0.43797296 -0.67448246 0
2.5347857 -0.44923225 -0.59432071 0
2.5535066 -0.45346946 -0.50411743 0
2.6157086 -0.46592864 -0.42080876 0
2.6616316 -0.47506747 -0.33197212 0
2.7300019 -0.48874569 -0.24264158 0
2.7659912 -0.4961853 -0.14727339 0
2.476481 -0.45094594 -0.67448246 0
2.5285647 -0.46179786 -0.59342086 0
2.5588219 -0.46824691 -0.50564384 0
2.6287766 -0.48247075 -0.42331171 0
2.6630123 -0.48971516 -0.3324596 0
2.7712111 -0.51211286 -0.14769208 0
2.4664905 -0.46248236 -0.67241186 0
2.5414333 -0.47791216 -0.59702009 0
2.5563352 -0.4816384 -0.50564384 0
2.6145682 -0.49402779 -0.42143452 0
2.6682134 -0.5051288 -0.33343455 0
2.7724159 -0.52736229 -0.14790143 0
2.4735196 -0.4772203 -0.67500007 0
2.5255034 -0.48862132 -0.59387076 0
2.5634151 -0.49688461 -0.50755197 0
2.673326 -0.52061039 -0.33440951 0
2.7161217 -0.53042084 -0.24211864 0
2.7656963 -0.54110438 -0.14769208 0
2.4766719 -0.49129274 -0.67655301 0
2.5607784 -0.51029974 -0.50755197 0
2.6569378 -0.53187311 -0.33270332 0
2.7133074 -0.54463506 -0.24211864 0
2.4816375 -0.50579697 -0.67862362 0
2.5580714 -0.52370089 -0.50755197 0
2.6103561 -0.53582913 -0.42206025 0
2.6599498 -0.54697698 -0.33343455 0
2.4657187 -0.5160138 -0.67500007 0
2.5365889 -0.53223163 -0.59836978 0
2.555294 -0.53708768 -0.50755197 0
2.6113803 -0.55030411 -0.42268598 0
2.4629831 -0.52891713 -0.67500007 0
2.5375776 -0.54632616 -0.59926957 0
2.4582934 -0.54139054 -0.67448246 0
2.5336611 0.36420289 -0.68587047 0
2.5713356 0.35497314 -0.59926957 0
2.7121799 0.37104076 -0.33611569 0
2.523931 0.33586875 -0.68224704 0
2.669343 0.35189974 -0.42644039 0
2.7298932 0.35842806 -0.33806559 0
2.5352366 0.32387131 -0.68483526 0
2.5943007 0.33003628 -0.60376859 0
2.6312675 0.33380705 -0.51556593 0
2.6868863 0.33943361 -0.42894334 0
2.8339946 0.35449955 -0.14968085 0
2.5120232 0.30710295 -0.67810595 0
2.5921242 0.31597731 -0.6028688 0
2.6135457 0.31719995 -0.51174974 0
2.6494055 0.32061252 -0.42268598 0
2.8239722 0.33773893 -0.14905281 0
