# .PCD v0.7 - Point Cloud Data file format
VERSION 0.7
FIELDS x y z
SIZE 4 4 4
TYPE F F F
COUNT 1 1 1
WIDTH 428
HEIGHT 1
VIEWPOINT 0 0 0 1 0 0 0
POINTS 428
DATA ascii
1.7060044 1.299157 -0.57457829
1.7346662 1.3052685 -0.50119096
1.7737463 1.3322507 -0.35135183
1.7212887 1.2820742 -0.57509595
1.7582825 1.3072444 -0.42588571
1.7373096 1.2799197 -0.57820177
1.7531732 1.2901913 -0.50254071
1.8005652 1.3226473 -0.35385481
1.7190061 1.2526032 -0.56991959
1.7612565 1.2824479 -0.50299054
1.787752 1.3003087 -0.42970186
1.7976495 1.3065484 -0.35197759
1.7224072 1.2413253 -0.56888431
1.7742723 1.2777644 -0.50479019
1.7688137 1.2728961 -0.42359596
1.7932377 1.2890477 -0.3497875
1.7365326 1.2381997 -0.57147247
1.7698272 1.2605428 -0.50164086
1.783452 1.2693087 -0.42550406
1.8080125 1.2853632 -0.35135183
1.7556224 1.2379965 -0.57561362
1.7700309 1.2467697 -0.49984124
1.7997067 1.2667331 -0.4277938
1.7589107 1.2265775 -0.57457829
1.7845293 1.2430546 -0.50209075
1.7966466 1.2505627 -0.42550406
1.7605381 1.2140609 -0.57302535
1.800643 1.2403263 -0.50479019
1.7967008 1.2366865 -0.42397761
1.7652749 1.2037374 -0.57250774
1.7988451 1.2257106 -0.50254071
1.8128891 1.2338905 -0.42626733
1.7763584 1.1977185 -0.57406068
1.805239 1.2162739 -0.50254071
1.8223685 1.2268914 -0.42703056
1.8408237 1.237916 -0.35135183
1.7856123 1.1908556 -0.57509595
1.8050948 1.2024839 -0.50074106
1.8304025 1.2184193 -0.42741215
1.801707 1.1875569 -0.57820177
1.8113664 1.1930158 -0.50074106
1.8287666 1.2031037 -0.42550406
1.7965713 1.1707227 -0.57457829
1.8243279 1.1874501 -0.50254071
1.8350407 1.1935123 -0.42550406
1.8043001 1.1623467 -0.57509595
1.8429163 1.1849494 -0.42588571
1.816879 1.1570349 -0.5771665
1.8413907 1.1717402 -0.50389034
1.8081983 1.1382432 -0.57250774
1.8425518 1.1589707 -0.50254071
1.8782916 1.1805351 -0.43122834
1.8204968 1.1331598 -0.57457829
1.8535597 1.1523936 -0.50389034
1.8677701 1.1603247 -0.42741215
1.8214691 1.1205751 -0.57302535
1.8562479 1.1406319 -0.50299054
1.8721467 1.1495026 -0.42703056
1.827311 1.1110232 -0.57302535
1.8555319 1.1268514 -0.50119096
1.8865325 1.1447756 -0.42893866
1.8331034 1.1014398 -0.57302535
1.8647485 1.1191258 -0.50209075
1.8908165 1.1338729 -0.42855701
1.8488119 1.0977452 -0.57613122
1.868906 1.1083533 -0.50164086
1.9034837 1.1279603 -0.43008351
1.8595335 1.0909814 -0.57768416
1.9032673 1.1153007 -0.50928921
1.8941153 1.1090509 -0.42664891
1.8998965 1.0991179 -0.42664891
1.8591207 1.0647296 -0.57406068
1.9131497 1.0943425 -0.50883931
1.9107392 1.0920774 -0.4277938
1.8747591 1.0606871 -0.5771665
1.9018883 1.0747218 -0.50434029
1.9232688 1.0859194 -0.42932025
1.8870325 1.0546269 -0.57923704
1.9091907 1.0656995 -0.50479019
1.928929 1.0758331 -0.42932025
1.8925287 1.0447319 -0.57923704
1.9113313 1.0538061 -0.50389034
1.9276571 1.0619301 -0.4277938
1.8894919 1.030185 -0.57664889
1.9219569 1.0465806 -0.50524008
1.9331906 1.0518229 -0.4277938
1.8914577 1.0184464 -0.57561362
1.9394246 1.0429634 -0.50838935
1.9455889 1.045403 -0.42932025
1.9052936 1.0130624 -0.57820177
1.9293692 1.0245682 -0.50434029
1.9545044 1.0370427 -0.43008351
1.9381588 1.0162625 -0.50524008
1.9599082 1.0267935 -0.43008351
1.919228 0.99483347 -0.57923704
1.9635134 1.0156161 -0.42970186
1.9330093 0.98917061 -0.58182526
1.9573712 1.0003444 -0.50748956
1.96181 1.0017507 -0.42817542
1.9157453 0.96771318 -0.57509595
1.9747611 0.99622685 -0.51063889
1.9810538 0.99853289 -0.43122834
1.9277017 0.96111673 -0.5771665
1.9799504 0.98587304 -0.51063889
1.9915278 0.99077046 -0.4323732
1.9379073 0.95356953 -0.57871938
1.9745911 0.97033638 -0.50793946
1.9984508 0.98119426 -0.43275481
1.9533012 0.94847143 -0.58182526
1.9831522 0.96168351 -0.50883931
1.9929597 0.96558154 -0.4304651
1.9512714 0.93489277 -0.57975465
1.9916756 0.95296937 -0.5097391
1.9979883 0.95513296 -0.4304651
1.9526463 0.92301255 -0.57871938
2.015857 0.9520303 -0.51468801
2.0100648 0.94800794 -0.43199161
2.0183969 0.93947953 -0.43275481
2.0286412 0.9313556 -0.4338997
1.996654 0.90614241 -0.58751929
2.0216873 0.91622704 -0.51243848
2.0245471 0.91667265 -0.43199161
2.0048978 0.89725453 -0.58855456
2.0353525 0.90960521 -0.51468801
2.0329051 0.90765911 -0.43275481
1.9883591 0.8773855 -0.58234286
2.0365207 0.89736384 -0.51378822
2.041223 0.89858508 -0.43351805
2.0035546 0.87158698 -0.58544868
2.0268922 0.88047749 -0.510189
2.0531037 0.89101201 -0.43504456
2.0116417 0.86260682 -0.58648396
2.0368493 0.87215263 -0.51153868
2.0685711 0.88488239 -0.43733424
2.0357051 0.86033428 -0.59217799
2.0485692 0.86450714 -0.51333827
2.0605125 0.86870009 -0.43466291
2.0205641 0.84149432 -0.58648396
2.0512681 0.8530215 -0.51288843
2.0668461 0.85865235 -0.43504456
2.0822151 0.85228151 -0.43733424
2.0418031 0.82535666 -0.5901075
2.0939319 0.8443048 -0.43886071
2.0335326 0.80965286 -0.58648396
2.0770905 0.82573467 -0.5160377
2.0946751 0.83187878 -0.43809745
2.0485356 0.80322516 -0.58958983
2.0813851 0.81484842 -0.5160377
2.0990019 0.82090038 -0.43809745
2.0509107 0.79179293 -0.58907217
2.0892594 0.80534166 -0.51693749
2.1014392 0.80919307 -0.43771586
2.0550287 0.78104228 -0.58907217
2.1043801 0.79853827 -0.51963693
2.1148262 0.80165905 -0.43962395
2.0590899 0.77027214 -0.58907217
2.0975785 0.78341854 -0.51693749
2.1245129 0.7926333 -0.44076881
2.0703461 0.76215047 -0.59114271
2.10531 0.77376908 -0.51783729
2.1341631 0.78352815 -0.44191366
2.0832586 0.75495243 -0.59373093
2.1270237 0.7687121 -0.43962395
2.1382856 0.76056874 -0.4411504
2.094568 0.73473978 -0.5947662
2.1390162 0.74907392 -0.52323616
2.155211 0.75389981 -0.44382176
2.1094711 0.72717363 -0.59787202
2.1393523 0.73622119 -0.5223363
2.1592586 0.74222773 -0.44382176
2.1206937 0.7182281 -0.59994256
2.1433046 0.72463417 -0.5223363
2.1706827 0.73304737 -0.44534823
2.1280913 0.70833433 -0.60097784
2.1544666 0.71586055 -0.52413595
2.1744912 0.72167134 -0.44534823
2.1280982 0.69598162 -0.59994256
2.1580625 0.70494634 -0.52413595
2.1745069 0.70905828 -0.444585
2.1371117 0.68697476 -0.6014955
2.1708798 0.69699371 -0.52638549
2.1836767 0.69984132 -0.44572985
2.1405613 0.67614877 -0.6014955
2.1614897 0.6815151 -0.52323616
2.1928086 0.69054854 -0.44687468
2.203897 0.68137687 -0.44840118
2.1660058 0.65932107 -0.60667187
2.1980412 0.66697836 -0.44649309
2.1490667 0.64188993 -0.60097784
2.2092783 0.65861452 -0.53223419
2.2090294 0.65770191 -0.44801953
2.1561058 0.63171583 -0.60201317
2.218097 0.64777619 -0.44916439
2.1649539 0.6220178 -0.60356599
2.1973214 0.63007218 -0.52773517
2.230895 0.63885653 -0.45107248
2.1719005 0.6117208 -0.60460132
2.2004824 0.61894321 -0.52773517
2.2417705 0.62928897 -0.45259899
2.1881094 0.60393798 -0.60822481
2.2243583 0.61310875 -0.53268409
2.2316766 0.61428785 -0.44992763
2.1818137 0.59033322 -0.6056366
2.2329669 0.60208303 -0.44954604
2.1849756 0.57852054 -0.6056366
2.2456834 0.59249663 -0.45145413
2.1973255 0.56949413 -0.60822481
2.2431471 0.58053571 -0.53493357
2.2620609 0.58416712 -0.45412543
2.20964 0.56035632 -0.61081296
2.2423778 0.56782669 -0.53403378
2.2840221 0.5775227 -0.45794162
2.2199476 0.55102634 -0.61288351
2.2453206 0.55607641 -0.53403378
1.6924307 1.285091 -0.56940192
1.7520754 1.3145396 -0.50568998
1.7026936 1.264994 -0.56836665
1.7479798 1.297219 -0.50254071
1.7952416 1.3298643 -0.35385481
1.7201916 1.2640679 -0.57199007
1.7453229 1.281129 -0.49984124
1.7299118 1.257316 -0.57302535
1.7693533 1.2845672 -0.50479019
1.7639128 1.2796788 -0.42359596
1.797873 1.3028773 -0.35166472
1.7301964 1.2437313 -0.57095486
1.7649745 1.2673287 -0.50164086
1.7737803 1.2727135 -0.42435926
1.7351104 1.2335352 -0.57043719
1.7840754 1.2674085 -0.50524008
1.7852224 1.2668175 -0.42550406
1.7571335 1.2358508 -0.57561362
1.7729298 1.2460361 -0.50029117
1.7948256 1.2600213 -0.42626733
1.7570227 1.2225285 -0.57354301
1.7810295 1.2378486 -0.50074106
1.8011804 1.2509205 -0.42626733
1.8324374 1.271207 -0.35322908
1.7681745 1.2165968 -0.57509595
1.7906985 1.2307136 -0.50164086
1.8044682 1.2392501 -0.42550406
1.8520993 1.2705351 -0.35573202
1.7713262 1.2051485 -0.57406068
1.7969043 1.2216349 -0.50164086
1.8109323 1.2297846 -0.42550406
1.7728033 1.1926219 -0.57250774
1.8129808 1.2187315 -0.50434029
1.8203928 1.2227931 -0.42626733
1.7868584 1.1889853 -0.57509595
1.8095989 1.2027504 -0.50164086
1.8267711 1.2132436 -0.42626733
1.794879 1.1803621 -0.57561362
1.8126147 1.1911184 -0.50074106
1.8382319 1.2065746 -0.42741215
1.8010354 1.170947 -0.57561362
1.8255705 1.185539 -0.50254071
1.8362893 1.1915902 -0.42550406
1.8120167 1.1646348 -0.5771665
1.8358943 1.1777178 -0.42397761
1.792001 1.138555 -0.56888431
1.8459072 1.1719005 -0.50479019
1.8586153 1.1786035 -0.4277938
1.8126619 1.1384033 -0.57354301
1.8454149 1.1580764 -0.50299054
1.8678836 1.1712667 -0.42855701
1.8233236 1.132272 -0.57509595
1.8497982 1.1473697 -0.50254071
1.8806654 1.1656083 -0.43008351
1.8325204 1.1247305 -0.57613122
1.8507957 1.1346135 -0.50119096
1.8766975 1.1495926 -0.4277938
1.8350804 1.1131167 -0.57509595
1.8667109 1.1309667 -0.50389034
1.8843713 1.1407661 -0.42817542
1.8342557 1.0995198 -0.57302535
1.8776232 1.12418 -0.50524008
1.8903183 1.1308846 -0.42817542
1.8433117 1.0918703 -0.57406068
1.8784517 1.111357 -0.50389034
1.8995936 1.1229693 -0.42893866
1.899387 1.1103566 -0.50793946
1.9054471 1.1130083 -0.42893866
1.8713684 1.0821781 -0.57923704
1.9044471 1.0990905 -0.42741215
1.8671309 1.0662887 -0.57613122
1.9137777 1.0907145 -0.42817542
1.8693233 1.054599 -0.57509595
1.9199885 1.0822991 -0.50883931
1.9263053 1.0845313 -0.42970186
1.8883194 1.0523208 -0.57923704
1.9171159 1.0674918 -0.50658977
1.9317701 1.0747672 -0.42970186
1.8936216 1.0427494 -0.57923704
1.9122502 1.0521379 -0.50389034
1.9373709 1.0646384 -0.42970186
1.9024493 1.0346668 -0.58027232
1.9211574 1.0439726 -0.50479019
1.9392841 1.052945 -0.42893866
1.8908217 1.0155503 -0.57509595
1.9302123 1.0354049 -0.50568998
1.9414917 1.040583 -0.42817542
1.8995267 1.0074461 -0.57613122
1.9407735 1.0280205 -0.50703967
1.950384 1.0322394 -0.42893866
1.9013524 0.99569458 -0.57509595
1.9374951 1.0133295 -0.50479019
1.9627222 1.0256499 -0.4304651
1.9116883 0.98838699 -0.57664889
1.9785337 1.0207605 -0.43275481
1.9426475 0.99153715 -0.58441341
1.953209 0.99563915 -0.50613987
1.9733542 1.0050417 -0.4304651
1.9236586 0.96918339 -0.5771665
1.9758031 0.99415839 -0.51063889
1.975082 0.99293065 -0.42970186
1.9235177 0.95651716 -0.57561362
1.9844723 0.98553276 -0.51153868
1.9872884 0.9860667 -0.43122834
1.9371706 0.95068872 -0.57820177
1.9756061 0.96826816 -0.50793946
1.9924242 0.97564745 -0.43122834
1.9490771 0.94389951 -0.58027232
1.9806494 0.95790946 -0.50793946
2.004576 0.96861911 -0.43275481
1.964451 0.9386794 -0.5833782
1.9873961 0.94836557 -0.50838935
2.0060759 0.95641983 -0.43199161
1.9588541 0.92343873 -0.58027232
2.0115638 0.94742787 -0.51333827
2.0039501 0.94256026 -0.4304651
2.0229414 0.93901777 -0.43351805
2.033185 0.93086523 -0.43466291
1.9905618 0.90086508 -0.58544868
2.019094 0.91250449 -0.51153868
2.0398204 0.92101538 -0.43504456
2.0093644 0.89672917 -0.58958983
2.0327439 0.90588695 -0.51378822
2.0410285 0.90872401 -0.43428129
1.9998863 0.87997121 -0.58544868
2.0303228 0.89209509 -0.51198858
2.0421629 0.89644718 -0.43351805
2.0044661 0.86948848 -0.58544868
2.0403302 0.88377655 -0.51333827
2.0540359 0.8888607 -0.43504456
2.0125442 0.86049891 -0.58648396
2.0395536 0.87078446 -0.51198858
2.0622733 0.87963486 -0.43580776
2.0188022 0.85070032 -0.58700162
2.0476773 0.86160576 -0.51288843
2.0740902 0.8718676 -0.43733424
2.0428543 0.84826827 -0.59269565
2.0503602 0.85012662 -0.51243848
2.0713718 0.85799026 -0.43580776
2.0758355 0.84713346 -0.43580776
2.0390825 0.82177389 -0.58907217
2.0838861 0.8377161 -0.436571
2.0343797 0.80752206 -0.58648396
2.0562141 0.81494308 -0.51063889
2.1046722 0.83329862 -0.44000554
2.0457771 0.79967302 -0.58855456
2.0822372 0.8126685 -0.5160377
2.1090062 0.82226783 -0.44000554
2.0625563 0.79380834 -0.59217799
2.0937402 0.80455047 -0.51783729
2.1077843 0.80910289 -0.43886071
2.0558455 0.77888995 -0.58907217
2.0906334 0.79081851 -0.5160377
2.1193376 0.80083203 -0.44038719
2.0598953 0.76811558 -0.58907217
2.0983977 0.78122169 -0.51693749
2.1198218 0.78835422 -0.43962395
2.0675163 0.75865024 -0.5901075
2.1134386 0.77424556 -0.51963693
2.136826 0.78196764 -0.44229528
2.151974 0.77475935 -0.444585
2.1410637 0.75861162 -0.44153205
2.0991118 0.73345387 -0.59580147
2.1380899 0.74581736 -0.52278626
2.1487141 0.74868339 -0.44229528
2.1030493 0.72208655 -0.59580147
2.1456523 0.7358762 -0.52368605
2.1564488 0.73831731 -0.44305849
2.1214449 0.7160061 -0.59994256
2.1440623 0.72238946 -0.5223363
2.1733098 0.73140019 -0.44572985
2.1324992 0.70732188 -0.60201317
2.147815 0.71115392 -0.5223363
2.1771097 0.72001046 -0.44572985
2.1361732 0.6961472 -0.60201317
2.1550934 0.70147985 -0.52323616
2.1789827 0.70799422 -0.44534823
2.1397891 0.68495238 -0.60201317
2.1643047 0.69196719 -0.52458584
2.1787977 0.69576263 -0.444585
2.1432283 0.67411387 -0.60201317
2.1697578 0.68120891 -0.52503574
2.1899042 0.68669432 -0.44611144
2.2047276 0.67868501 -0.44840118
2.1631117 0.65555489 -0.6056366
2.1916945 0.66296446 -0.52863497
2.2063718 0.66656262 -0.44801953
2.1646628 0.64366895 -0.60511893
2.2026083 0.65369719 -0.53043455
2.2117138 0.65555966 -0.44840118
2.1642942 0.6312449 -0.60408366
2.2060008 0.64215612 -0.53043455
2.2207718 0.6456151 -0.44954604
2.1619976 0.61831015 -0.60253078
2.2243245 0.63487422 -0.53403378
2.2278976 0.63505429 -0.45030925
2.1689258 0.60802406 -0.60356599
2.2313714 0.62426984 -0.53493357
2.2330832 0.6239084 -0.4506909
2.1851196 0.60024208 -0.60718954
2.2214534 0.60897219 -0.5317843
2.260936 0.61894602 -0.45565188
2.1994255 0.59180397 -0.6102953
2.2302582 0.59884703 -0.53313398
2.2432866 0.60150707 -0.45145413
2.1912856 0.57732642 -0.60718954
2.2464051 0.58975375 -0.45145413
2.1942782 0.56584567 -0.60718954
2.2590537 0.58128721 -0.53853279
2.2437582 0.57651639 -0.45030925
2.2084498 0.55718386 -0.6102953
2.246948 0.56564575 -0.53493357
2.209461 0.54515082 -0.60977769
2.2403216 0.55193454 -0.53268409
