# .PCD v0.7 - Point Cloud Data file format
VERSION 0.7
FIELDS x y z
SIZE 4 4 4
TYPE F F F
COUNT 1 1 1
WIDTH 1515
HEIGHT 1
VIEWPOINT 0 0 0 1 0 0 0
POINTS 1515
DATA ascii
2.8640308 2.3802986 0.85976297
2.8243947 2.3456926 -0.064085238
2.8627408 2.3766932 0.99697101
2.0529616 1.6977545 -0.71382296
2.8173804 2.3290844 0.063805997
2.2505903 1.8592057 -0.67395335
2.3808784 1.9661374 0.1618228
2.4996519 2.0634873 -0.63005131
2.3634641 1.9503696 0.26809105
2.3028088 1.8989651 -0.472745
2.3144679 1.9079008 0.36828917
2.3485041 1.93527 -0.37365144
2.9075792 2.3951201 0.59664112
2.453526 2.0196567 -0.27802682
2.4301226 1.9996805 0.61173368
2.8412178 2.3371277 -0.19280569
2.8794656 2.3677447 0.86066276
2.8459094 2.3384874 -0.064294666
2.8841028 2.3690281 1.0000768
2.0618231 1.6869817 -0.71382296
2.8403723 2.3231626 0.064050332
2.2633126 1.8498626 -0.67485321
2.3973272 1.9586985 0.16224147
2.5058599 2.0466461 -0.62890649
2.3859909 1.9480479 0.26948556
2.758121 2.2502728 -0.56378984
2.3382714 1.9070477 0.37048283
2.3247571 1.8953503 -0.36828917
2.9323304 2.3898468 0.59914404
2.4161768 1.9677788 -0.27262318
2.4862349 2.0241139 0.62318224
2.868907 2.3348255 -0.19385241
2.8933344 2.3538663 0.86111259
2.8643205 2.3286009 -0.064434282
2.9144573 2.368516 1.0062885
2.0646212 1.6713016 -0.71175241
2.8633783 2.317065 0.064294666
2.2684207 1.8343114 -0.67350346
2.4122093 1.9498868 0.1625555
2.5058537 2.0248585 -0.62623513
2.3946085 1.9342759 0.26931125
2.7790897 2.243243 -0.56566709
2.3466799 1.8935314 0.37023908
2.3454642 1.8918768 -0.36999539
2.9509547 2.3794196 0.60039556
2.3752487 1.9138492 -0.26687086
2.5365524 2.0430872 0.63310426
2.8935385 2.3297923 -0.19468978
2.9314263 2.3594575 0.868761
2.8827071 2.3185844 -0.064573906
2.9298291 2.3556454 1.0073237
2.0627887 1.6520147 -0.70812893
2.891083 2.3145361 0.064643718
2.2825594 1.8260605 -0.67485321
2.4395449 1.9509499 0.1637069
2.5225546 2.0166144 -0.62776166
2.4171546 1.9316628 0.27070573
2.5731514 2.0548558 -0.52155256
2.3767297 1.8973191 0.37340769
2.426713 1.9365252 -0.38120735
2.9803584 2.3774872 0.60383707
2.3587527 1.880272 -0.26390758
2.5871346 2.0615897 0.64302635
2.9197567 2.3258104 -0.19563182
2.9681332 2.363497 0.87595946
2.9041953 2.3109303 -0.064783335
2.9542196 2.3498914 1.0114648
2.0747259 1.6432285 -0.70916426
2.9082661 2.3025849 0.064748429
2.286293 1.8088471 -0.67305356
2.4735622 1.9563073 0.16527697
2.5380483 2.0065904 -0.62890649
2.4463284 1.9333806 0.27279747
2.5578768 2.0200918 -0.5162338
2.4056575 1.8991922 0.37633255
2.5306513 1.9971544 -0.39583167
3.0024829 2.3686693 0.60571432
2.3845375 1.879818 -0.26565069
2.5674105 2.0232592 0.63539398
2.9307289 2.3087428 -0.19552715
2.9732215 2.3413763 0.87370992
2.9276564 2.3038392 -0.065027662
2.9759998 2.3410406 1.0145707
2.0909042 1.638301 -0.71175241
2.9250045 2.2910259 0.064853139
2.2865248 1.7896457 -0.67035419
2.4869168 1.9457912 0.16548631
2.545428 1.9908528 -0.62814325
2.4658349 1.9279091 0.27384335
2.5497408 1.9920753 -0.51247936
4.1990829 3.2795055 0.65419465
2.5301201 1.9753262 -0.39412549
3.0257461 2.3614213 0.60790437
2.4194844 1.8869121 -0.26843968
2.5408106 1.9808172 0.62623513
2.9553807 2.3031871 -0.19636452
3.0008123 2.3377535 0.87820894
2.9633486 2.3069038 -0.065551244
2.9973636 2.332546 1.0176765
2.1009805 1.6285136 -0.71227002
2.9575098 2.2916012 0.065306902
2.2970943 1.7792424 -0.67080402
2.5018096 1.9364102 0.16580033
2.548053 1.9714918 -0.62623513
2.4821997 1.9198471 0.27454057
2.5488508 1.9706873 -0.51028925
2.4474051 1.8908882 0.37974492
2.5058658 1.9353554 -0.38876322
3.0443227 2.3503759 0.60915589
2.4637041 1.9014219 -0.27227452
2.5573649 1.9722829 0.62776166
2.9832165 2.2998767 -0.19741124
3.0238178 2.3303344 0.88135827
2.9749863 2.2918766 -0.065551244
3.0244374 2.3291318 1.0228529
2.1018136 1.6116128 -0.70968187
2.9869268 2.2894654 0.06569086
2.3141129 1.7731174 -0.67305356
2.5274348 1.9358671 0.16684705
2.5533228 1.9549888 -0.6250903
2.4969654 1.9104558 0.27506351
2.5450134 1.9465137 -0.50747347
4.2704792 3.2650282 0.66004443
2.5014338 1.9117992 -0.38656959
2.9404156 2.2456791 0.5860036
2.449872 1.8703601 -0.26965985
2.564194 1.9569314 0.62699842
3.0122864 2.2980728 -0.19856264
3.0402219 2.3185458 0.88270795
2.9996698 2.2859643 -0.065830477
3.0458121 2.3202877 1.0259588
2.0991704 1.5927806 -0.70605838
2.9936972 2.2706921 0.065586142
2.3264716 1.7633305 -0.67395335
2.5486798 1.9310495 0.16757976
2.5556984 1.935667 -0.62318224
2.5129564 1.9026043 0.27576074
2.5346904 1.9176683 -0.50340617
4.3255153 3.2713606 0.66589415
2.5003259 1.8902953 -0.38486344
2.5955801 1.9615995 0.51529521
2.4341929 1.8382952 -0.26687086
3.0758102 2.3220022 0.74911612
3.0370321 2.2918937 -0.19940001
3.0616546 2.3096364 0.88540733
3.0291634 2.2834673 -0.066214427
3.0702624 2.3136084 1.0300999
2.1074815 1.5817671 -0.70605838
3.0215399 2.2669878 0.065935194
2.3169622 1.7370969 -0.66855454
2.5651481 1.9224701 0.16799843
2.5657988 1.9222586 -0.62318224
2.5404265 1.9025577 0.27767819
2.5083215 1.8771478 -0.49621019
2.552778 1.9097227 0.39144436
2.4974706 1.8676677 -0.38291353
2.5710082 1.9219614 0.50841206
2.4230337 1.8100247 -0.26460484
3.1130965 2.3246582 0.75522202
3.0569928 2.281935 -0.19992337
3.0830765 2.3005679 0.88810676
3.0587115 2.2807252 -0.066598386
3.1009204 2.3113563 1.0363115
2.1188371 1.5730135 -0.70709366
3.0542431 2.2666295 0.066388957
2.3260262 1.7249411 -0.66855454
2.5767829 1.9102031 0.16810311
2.5553231 1.8936018 -0.61822122
2.5807722 1.911763 0.28099012
2.5117652 1.859287 -0.4949587
2.5324237 1.8738952 0.38681334
2.476892 1.8321366 -0.37828246
2.4388866 1.8020498 -0.26530206
3.1378584 2.3176587 0.75827497
3.0994275 2.2884371 -0.20191215
3.1044877 2.2913365 0.8908062
3.086705 2.2765474 -0.06694743
3.1316407 2.3088431 1.0425231
2.1192584 1.5561814 -0.70450544
3.0709066 2.2541544 0.066493668
2.3240261 1.7046713 -0.66540521
2.9105713 2.1325591 0.31567809
2.5405982 1.8594381 0.38656959
2.4560125 1.7968707 -0.37365144
2.0059249 1.4659655 -0.21736643
3.1594627 2.3081453 0.76056474
1.8726265 1.3675474 -0.1215241
3.1290345 2.2842414 0.89440536
3.1018128 2.2627122 -0.067017242
3.14993 2.2969682 1.0445937
2.0476589 1.4871671 -0.67810595
2.1260161 1.5429413 -0.60646802
2.7211421 1.9734001 0.17616285
3.1742074 2.2977417 0.4811402
1.8890003 1.3659008 -0.20394444
3.1905997 2.3053694 0.76514411
1.8910958 1.3659087 -0.12225681
3.1535907 2.2769537 0.89800459
1.8711787 1.3505305 -0.040280156
3.1740489 2.2900374 1.0487348
1.8906713 1.3580846 -0.62375391
2.6953955 1.9339858 0.17386007
3.2051613 2.2955186 0.48406506
3.208616 2.2937574 0.76667058
3.1904466 2.2790861 0.90520304
3.1828504 2.2711439 1.0476996
1.8877826 1.3410821 0.040419776
1.8655605 1.3243147 -0.52818507
2.7217722 1.9314055 0.17490679
1.8847239 1.3369305 -0.44916439
2.8442051 2.0167913 0.3050451
1.8745006 1.3282039 -0.36386663
3.2317176 2.2890298 0.48625872
3.2269936 2.28146 0.768197
1.8854879 1.3325307 -0.12100074
3.2202401 2.2741575 0.9101519
1.8982881 1.3400875 -0.040559392
3.2136383 2.2678146 1.0539112
1.8715932 1.3148901 -0.61288351
1.9031931 1.3365946 0.040594298
1.8900131 1.3268458 -0.53313398
2.7351177 1.9194223 0.17511612
1.8903226 1.3255862 -0.44878277
2.8028677 1.9647775 0.29946712
1.8798118 1.317237 -0.36355373
3.2501612 2.2766337 0.48723367
1.8881238 1.321588 -0.28298062
1.906956 1.333778 -0.20359582
3.2453318 2.269032 0.76972359
1.902493 1.3291737 -0.12162878
3.2257142 2.2528002 0.90835232
1.9167558 1.3381431 -0.040803727
3.2353692 2.2570238 1.057017
1.8879718 1.3116858 -0.61598933
1.900311 1.3197668 0.04038487
1.8873292 1.3102641 -0.53043455
2.7323346 1.8954878 0.17427875
1.8827174 1.3056021 -0.44534823
2.865515 1.986397 0.3050451
1.8899304 1.3096262 -0.36417946
3.2787519 2.2703156 0.48967105
1.8852247 1.3049047 -0.28151822
1.8991662 1.3135746 -0.20202701
3.2834017 2.269299 0.77582937
1.8897082 1.3055705 -0.12037271
3.2486894 2.2436326 0.91150165
1.8974061 1.3099109 -0.040245246
3.262651 2.2515931 1.0621934
1.8804832 1.2919378 -0.61133063
1.9038979 1.3075352 0.040315062
1.8893449 1.2970542 -0.52908486
2.6891959 1.8454714 0.17092925
1.8860638 1.2938346 -0.444585
1.8935025 1.2974801 -0.36355373
3.2967522 2.2581778 0.490646
1.8918054 1.2953458 -0.28151822
1.8961508 1.2968634 -0.20098113
3.304569 2.2593005 0.77811909
3.2793131 2.2403519 0.91690052
1.900936 1.297703 -0.040175438
3.2775874 2.2366564 1.0632287
1.8822048 1.2791452 -0.60977769
1.9055293 1.2945105 0.040210344
2.7285705 1.8515515 0.17281334
1.8895632 1.2817371 -0.44382176
1.8920935 1.2820073 -0.36198941
3.2707279 2.2152824 0.48504004
1.900205 1.286536 -0.28176194
1.899614 1.2846859 -0.20063251
3.3179815 2.2430644 0.7785008
1.9162902 1.2949892 -0.12121009
3.3168349 2.2406051 0.92409897
1.9126765 1.2910889 -0.040280156
3.311672 2.2345932 1.0704756
1.8952905 1.2735822 -0.61184824
1.9023211 1.2778258 0.040000916
1.9012057 1.2761126 -0.52863497
2.7780318 1.8639476 0.17532547
1.8995094 1.2740126 -0.444585
1.8954979 1.2698838 -0.36136368
3.2360997 2.1671979 0.47821537
1.9069148 1.2765696 -0.28176194
1.9030018 1.2725077 -0.20028389
3.3492658 2.2387538 0.78308016
1.9097593 1.2760606 -0.12037271
3.3414848 2.231868 0.92769814
1.9160841 1.278836 -0.040210344
3.3297544 2.2215126 1.0725461
1.9019326 1.2636417 -0.61184824
1.9123179 1.2700592 0.040070724
1.9143556 1.2704512 -0.53043455
2.7577963 1.8295009 0.17344138
1.9094262 1.26622 -0.44534823
1.9021207 1.2599421 -0.36136368
2.8998206 1.9200788 0.42703021
1.9036416 1.2599925 -0.28029951
2.8253398 1.8693441 0.53657025
1.9129632 1.2647225 -0.20063251
3.3773203 2.2320123 0.78689629
1.9130812 1.2638423 -0.12016336
3.3531263 2.2143393 0.92769814
1.9227532 1.2687865 -0.040210344
3.373594 2.2253201 1.0828989
1.902064 1.249424 -0.60977769
1.9172699 1.2589322 0.040035821
1.9209809 1.2604109 -0.53043455
2.7840381 1.8259906 0.1744881
1.906179 1.2497461 -0.44305849
2.852874 1.8697147 0.29842126
1.911997 1.2521296 -0.36198941
2.8234696 1.8483313 0.41435578
1.9068902 1.2478344 -0.27981204
2.8350894 1.8545246 0.53657025
1.9195586 1.2546895 -0.20063251
3.4152577 2.2314792 0.79300219
1.9230175 1.2559913 -0.12037271
3.3744645 2.2031455 0.93039757
1.9193223 1.2521447 -0.040000916
3.4013801 2.2181792 1.0880753
1.9085805 1.2394464 -0.60977769
1.925512 1.2499654 0.040070724
1.9210154 1.2460922 -0.52863497
2.7868569 1.8070428 0.1740694
1.9044586 1.2344096 -0.4411504
2.8893783 1.8720853 0.30121022
1.9251591 1.2463959 -0.36324087
2.8531077 1.8464644 0.41728067
1.9167315 1.2399892 -0.28029951
2.8613477 1.8503824 0.53969896
1.9160615 1.2381333 -0.19958666
3.4367898 2.2199574 0.79529196
1.9228555 1.2415723 -0.11995402
3.3957782 2.1917868 0.933097
1.9258517 1.2420787 -0.040000916
3.4161961 2.2024326 1.0891106
1.9052896 1.2231748 -0.60667187
1.925299 1.2355462 0.039931107
1.9275132 1.2360175 -0.52863497
2.7996435 1.7945815 0.17427875
1.9092437 1.2233607 -0.44076881
2.9226286 1.8719764 0.30365062
1.911694 1.2235193 -0.35948643
1.9231973 1.2299368 -0.28029951
2.8743272 1.8375015 0.54032475
1.9225178 1.2280844 -0.19958666
3.4715321 2.2167237 0.80063456
1.9394308 1.2379354 -0.12058206
3.4367774 2.1928451 0.94119519
1.9306424 1.2309036 -0.039966013
3.4374559 2.1907442 1.0922165
1.9198238 1.2183574 -0.60926002
1.9283649 1.2233056 0.039861299
1.9222245 1.21894 -0.52548569
2.8157501 1.7841736 0.17469743
1.9239156 1.2186004 -0.4426769
2.9357572 1.8587792 0.30399922
1.9128546 1.2106591 -0.35854784
3.1944122 2.0202048 0.46407849
1.9296111 1.2198499 -0.28029951
2.9507039 1.8646376 0.55283946
1.9270246 1.2172737 -0.19941233
3.4797707 2.1964219 0.79987139
1.9239273 1.2139083 -0.11922132
3.4712887 2.1893742 0.94749385
1.9436141 1.2253815 -0.04010563
3.4713807 2.1877389 1.0994633
1.922904 1.2062352 -0.60822481
1.9347438 1.2131917 0.039861299
1.9384872 1.2150691 -0.52818507
2.8247447 1.7698985 0.17469743
1.9333867 1.2109309 -0.44344014
2.9555831 1.8497235 0.3050451
1.9241915 1.2037696 -0.35948643
3.1608357 1.9766457 0.45774129
2.9972847 1.8721862 0.55972254
3.5041671 2.1870964 0.80292428
3.4988613 2.1820881 0.95199287
3.4959064 2.1777041 1.1036046
1.9408591 1.2033842 0.039861299
1.9197665 1.1898425 -0.52143651
2.8424628 1.7603428 0.17522079
2.978462 1.8431274 0.30643961
3.262326 2.0164263 0.47090316
1.9336259 1.1946988 -0.27908084
3.0571427 1.8881313 0.56910866
1.9513248 1.204692 -0.20063251
3.5389624 2.1831503 0.80826694
1.9482259 1.2013704 -0.11995402
3.5201924 2.1698732 0.9546923
1.9391046 1.194813 -0.039756581
3.5364919 2.1782172 1.112922
1.9539536 1.1973845 0.040000916
1.937602 1.1869004 -0.52458584
2.8683698 1.7563626 0.17626752
1.9424042 1.1889086 -0.4426769
2.9914703 1.8295869 0.30678821
1.9533384 1.1941957 -0.36261514
3.174248 1.9398499 0.45676634
1.9396483 1.1848962 -0.27908084
3.0062892 1.8350456 0.55784535
1.9474007 1.1882324 -0.19958666
3.5667284 2.1754324 0.81208313
1.9440501 1.1852558 -0.119326
3.554426 2.1662271 0.96099091
1.9436265 1.1836022 -0.039721675
3.5511487 2.1616807 1.1139573
1.9283936 1.1678776 -0.60408366
1.9467183 1.17851 0.039721675
1.9590014 1.1854787 -0.52863497
2.8935165 1.7496157 0.17720957
1.9422932 1.173979 -0.4411504
3.018378 1.823679 0.30853131
1.9310257 1.1662486 -0.35729638
3.1493399 1.900555 0.45164782
1.9496354 1.1760952 -0.27956831
3.0161731 1.8187541 0.55784535
1.9401499 1.169451 -0.19819216
3.5889134 2.1615551 0.81437284
1.9523493 1.1754113 -0.11943066
3.5965235 2.1644282 0.96908909
1.9500016 1.1730695 -0.039721675
3.5627916 2.1424367 1.1139573
1.937798 1.1597475 -0.60511893
1.9459978 1.1641951 0.039582059
1.9451114 1.1632037 -0.52323616
2.9229071 1.7472447 0.17846562
1.9482101 1.1641338 -0.4411504
3.0415719 1.8160189 0.30992582
1.933713 1.1540977 -0.35667065
3.146986 1.8774706 0.44994166
1.9538583 1.165195 -0.27932456
3.0460174 1.8150717 0.56159979
1.9496706 1.1613144 -0.19854078
3.6166763 2.1534076 0.81818902
1.9496926 1.1604068 -0.1189073
3.6107826 2.1481895 0.96998894
1.9561167 1.1628439 -0.039721675
3.5938907 2.1355929 1.1201688
1.9469675 1.1518934 -0.6061542
1.9518657 1.1543301 0.039582059
1.9494977 1.1520115 -0.52278626
2.9474919 1.7410597 0.17940767
1.9644225 1.159906 -0.44344014
3.0507238 1.800602 0.30992582
1.9499384 1.1499774 -0.35854784
3.139673 1.8508859 0.44750425
1.9548013 1.151926 -0.27859333
3.0517614 1.7976255 0.56097406
1.9557241 1.1510906 -0.19854078
3.6651289 2.1563425 0.82658464
1.9557419 1.1501821 -0.1189073
3.6320601 2.1351807 0.97268838
1.9656279 1.1546103 -0.039791487
3.6383407 2.1363103 1.1305215
1.9563086 1.1436322 -0.60718954
1.9682419 1.1501486 0.039791487
1.95382 1.1408054 -0.5223363
2.9703667 1.7336581 0.18024506
1.9569023 1.1416905 -0.44038719
3.0979743 1.806685 0.31376067
1.9627603 1.1437299 -0.35979933
3.1047232 1.8084431 0.44116706
1.9505128 1.1356825 -0.27713093
3.0782051 1.791558 0.56410277
1.963447 1.141836 -0.19871511
3.7035265 2.1529086 0.83269054
1.9617375 1.139926 -0.1189073
3.6499307 2.1200488 0.97448796
1.9405148 1.1262352 -0.039163202
3.6795552 2.1346803 1.1398392
1.9555779 1.129509 -0.60511893
1.9742373 1.1398269 0.039791487
1.9597661 1.1305602 -0.5223363
2.9932454 1.7260629 0.18108243
1.9509469 1.1245651 -0.43771586
3.1937075 1.8401748 0.32247624
1.9618742 1.1294944 -0.35854784
3.0694153 1.7664193 0.43482983
1.9581534 1.1264436 -0.27737463
3.1217923 1.7951096 0.57036012
1.9521232 1.1216136 -0.19697197
3.7181532 2.1354425 0.83345371
1.9746075 1.1336169 -0.119326
3.6778836 2.1106076 0.97898698
1.9498543 1.1180491 -0.03923301
3.6873295 2.1134627 1.1388038
1.9547532 1.1154251 -0.60304838
1.9697562 1.1235292 0.039582059
1.9673522 1.121248 -0.52278626
3.0456271 1.7350825 0.18369922
1.9636328 1.1182203 -0.43924233
3.1375015 1.7859726 0.3158524
1.9660438 1.1182307 -0.35823497
3.1062334 1.766021 0.43872967
1.9709283 1.1200985 -0.27834961
1.970098 1.1182624 -0.19819216
3.7463584 2.1256347 0.8372699
1.9700924 1.1173502 -0.11869796
3.7244837 2.1115053 0.98843491
3.7252419 2.1093585 1.147086
1.9669014 1.1082917 0.039407536
3.1051462 1.7475182 0.18673471
3.2405891 1.8222539 0.32526523
3.1414001 1.7643135 0.44238573
1.9750351 1.1087911 -0.27810585
3.7915859 2.1277411 0.68862462
1.9741886 1.106957 -0.19801784
3.7677116 2.1117504 0.83955961
3.7405899 2.094831 0.9897846
1.9806514 1.1083102 -0.039616965
3.7362356 2.0898237 1.147086
1.9796662 1.1018686 0.039547153
3.1456749 1.7487044 0.18861879
1.9803836 1.1004566 -0.44038719
3.333689 1.8516999 0.33363217
1.9672831 1.0918292 -0.35635775
1.9825494 1.0993983 -0.27834961
3.8268635 2.1212642 0.69300479
1.9869287 1.100467 -0.19871511
3.8062 2.1072059 0.84566551
1.9834323 1.0976259 -0.11880264
3.7634425 2.0818207 0.99293393
1.9759266 1.0921201 -0.039407536
3.7741809 2.085181 1.1553683
1.9788038 1.0883064 -0.60511893
1.9871603 1.0924519 0.039582059
1.982823 1.0896157 -0.5223363
3.1670427 1.7389399 0.18935151
1.9775126 1.0853498 -0.4384791
3.3276179 1.8255941 0.33206338
1.9727833 1.0818596 -0.35635775
3.2185853 1.7643154 0.45067286
1.9656444 1.0766064 -0.275181
3.8413827 2.1030962 0.69363046
1.9749954 1.0808308 -0.19697197
3.8271515 2.0935667 0.84795523
1.978637 1.0814778 -0.11817461
3.7982349 2.0751655 0.99923265
1.9744084 1.0782717 -0.039267913
3.8084257 2.0790098 1.1626152
1.9707072 1.0708984 -0.60097784
1.9926645 1.0823797 0.039582059
1.9848877 1.0777057 -0.52143651
3.1705372 1.7200301 0.1890375
1.9622711 1.064096 -0.4338997
3.3017828 1.78974 0.32857716
1.9817075 1.0737423 -0.35698348
1.965831 1.063809 -0.2744498
3.872828 2.0949037 0.69738495
1.9734305 1.0670298 -0.19627473
3.8687856 2.0909743 0.8548243
1.9858429 1.0723979 -0.11827926
3.839555 2.0725794 1.0073308
1.9921601 1.0749112 -0.039512251
3.8189001 2.0597064 1.1626152
1.9709963 1.0581684 -0.59942496
1.9893076 1.067552 0.039407536
1.9870682 1.0654571 -0.52053672
3.1968062 1.713395 0.19008422
1.9780151 1.0597129 -0.43618938
3.2932355 1.7635989 0.32683402
1.987303 1.0633501 -0.35698348
1.9816942 1.0594608 -0.27591223
3.9046521 2.0857673 0.70113939
1.9842627 1.0594984 -0.19679767
3.8762183 2.0688376 0.85406113
1.9967175 1.0648054 -0.11859328
3.8675525 2.0616114 1.0118299
2.0012901 1.0663469 -0.039582059
3.8500929 2.0505817 1.1688268
1.9835207 1.0511068 -0.6014955
1.9844518 1.0511566 0.039198104
1.9962486 1.0565132 -0.52143651
3.2978327 1.744639 0.19552715
1.9837193 1.048996 -0.43618938
3.2903993 1.7392371 0.32561383
1.9790531 1.0452029 -0.35448053
3.9059649 2.0619967 0.54231864
1.9944202 1.0524286 -0.27688718
3.9333539 2.073823 0.70426804
1.9899662 1.0487467 -0.19679767
3.9220939 2.0661368 0.8616935
1.9724041 1.038172 -0.11681387
3.9027941 2.0533602 1.0181284
2.0070302 1.055503 -0.039582059
3.8884916 2.0441027 1.1771091
1.9891783 1.0403602 -0.6014955
2.0007427 1.0459639 0.039407536
1.9810276 1.0352157 -0.5160377
3.2930603 1.719375 0.19468978
1.9893659 1.0382473 -0.43618938
3.2803297 1.7112732 0.32369643
1.9862503 1.0357393 -0.3547934
3.9466338 2.0571144 0.54646218
1.9877607 1.0352037 -0.275181
3.9581761 2.0604959 0.70677096
1.9989647 1.0401529 -0.19714628
3.9572432 2.058255 0.8670361
1.9813569 1.029673 -0.11702321
3.9342444 2.0436764 1.0235273
2.0160789 1.0468225 -0.039651867
3.9231465 2.0361731 1.184356
1.9909859 1.0285051 -0.60046023
2.0024579 1.0339886 0.039337724
2.0000951 1.0323266 -0.51963693
3.2839689 1.6935321 0.19364306
1.9893602 1.0254672 -0.43504456
3.2800939 1.6900847 0.32282487
1.9932232 1.0265779 -0.35510629
3.9799385 2.0489254 0.54963076
1.992975 1.0251291 -0.275181
3.9931486 2.053082 0.71115112
2.0042038 1.0300215 -0.19714628
3.9815807 2.0453753 0.87008911
1.993651 1.023279 -0.1174419
3.9566755 2.0299637 1.0266765
2.0088964 1.0302171 -0.039407536
3.9643459 2.0321536 1.1936734
1.9944454 1.0175364 -0.59994256
2.0112281 1.0256577 0.039407536
2.0193639 1.0289173 -0.52323616
3.2818196 1.6714512 0.19301502
1.9857773 1.0109313 -0.43313646
3.2637465 1.6608101 0.3203845
2.0020928 1.0179175 -0.35573202
4.0171576 2.0415485 0.55328691
1.9945985 1.0132313 -0.27469352
4.0246248 2.043576 0.71490556
4.013247 2.0351565 0.87466848
2.0184007 1.0231078 -0.11859328
3.9808068 2.0169568 1.0302758
1.9964216 1.0106533 -0.039058488
3.9990656 2.0235775 1.2009205
2.0022821 1.0079185 0.039128296
3.2780364 1.6479632 0.19228233
3.2510321 1.6329681 0.31829277
1.9915055 0.99944609 -0.35291618
4.0455356 2.0293889 0.55572426
2.0105233 1.008112 -0.27615595
4.074122 2.0419471 0.7217887
2.0059731 1.0045164 -0.19627473
4.0343819 2.019387 0.87695819
2.0112267 1.0062705 -0.11786059
4.0226846 2.0117767 1.0383741
1.9963192 0.99750531 -0.03895377
4.0165186 2.0060649 1.202991
2.0075319 0.99742144 0.039128296
2.0125728 0.99904907 -0.51873708
3.2723064 1.6236761 0.19144495
2.0138428 0.99880469 -0.43695265
3.239903 1.6061869 0.31637534
2.0126421 0.99689656 -0.35573202
4.0810127 2.0205071 0.55913663
2.0228906 1.0010936 -0.27713093
4.1024632 2.0293469 0.72491741
2.012991 0.99488282 -0.19644904
4.0695419 2.0104105 0.88230079
1.9967693 0.98599732 -0.11670919
4.0681119 2.0079381 1.0473721
2.0015154 0.98703772 -0.03895377
4.04776 1.995258 1.2092026
2.0136511 0.98778516 -0.60097784
2.012727 0.9868961 0.039128296
2.012526 0.98592633 -0.51738745
3.2574446 1.5951008 0.19008422
2.0225711 0.98997331 -0.43771586
3.2500577 1.5900775 0.31654966
2.0018616 0.97853798 -0.35291618
4.1004529 2.0034699 0.56035525
2.0138347 0.98351866 -0.275181
4.1343331 2.0182388 0.72867179
2.0199633 0.98520225 -0.19662334
4.1082478 2.0028396 0.88840669
2.0198586 0.98427856 -0.1177559
4.0820742 1.9883162 1.0482719
2.0210404 0.98354536 -0.03923301
4.0824733 1.9858667 1.2164496
2.0118399 0.97386199 -0.59890729
2.0214663 0.97808647 0.039198104
2.0227535 0.97827238 -0.51873708
3.2459698 1.5684657 0.18893282
2.0153525 0.97339141 -0.43504456
3.2386017 1.5635111 0.31463224
2.0014517 0.96581727 -0.35197759
4.1430726 1.9974918 0.56474262
2.0171683 0.97209966 -0.27493724
4.162643 2.0051341 0.73180056
2.0267191 0.97583073 -0.19679767
4.146986 1.994918 0.89451259
2.0249846 0.97368884 -0.1177559
4.0906715 1.9660722 1.047822
2.022388 0.97157127 -0.039163202
4.0680919 1.95347 1.2092026
2.0203977 0.96497953 -0.59994256
2.0265601 0.96748847 0.039198104
2.0190537 0.96347225 -0.5164876
3.237643 1.5442771 0.18799078
2.0131645 0.95979941 -0.43351805
3.2521405 1.5491025 0.31515515
2.027884 0.9655143 -0.35573202
4.180017 1.9892911 0.56839865
2.0274405 0.96443528 -0.27566847
4.1409693 1.9680496 0.72616887
2.0246022 0.9617855 -0.19610041
4.0896382 1.941902 0.88001108
2.0298867 0.96342766 -0.1177559
2.0057628 0.95069158 -0.038744342
3.9752598 1.8833442 1.1786621
2.0147712 0.94979906 -0.59683669
2.0241954 0.95380884 0.039058488
2.0293601 0.95537812 -0.51783729
2.0288219 0.95425874 -0.43580776
3.2184691 1.5131247 0.31114599
2.0221839 0.94984382 -0.35385481
2.0324628 0.95380616 -0.27566847
2.0223942 0.94778937 -0.19540317
2.0385213 0.95447963 -0.11796526
4.0701056 1.9048451 1.0374742
2.0288277 0.94864619 -0.03909339
3.9763155 1.8584135 1.1760738
2.0162137 0.93760729 -0.59580147
2.0273488 0.94235402 0.039023582
2.0219629 0.9389925 -0.51468801
3.2373328 1.5027193 0.18704872
2.0320094 0.94279706 -0.43542615
3.2353852 1.5004429 0.31201756
2.0235448 0.93758255 -0.35322908
4.1087537 1.902863 0.55596799
2.0284219 0.93898129 -0.2744498
4.0785475 1.8871475 0.71177691
2.0273292 0.9371869 -0.19540317
4.0580649 1.8750912 0.86894423
2.0326118 0.93876797 -0.11733723
4.023406 1.8573704 1.0230774
2.0265038 0.93465996 -0.03895377
4.0386238 1.8618312 1.1916029
2.0316312 0.93186986 -0.59890729
2.037708 0.93422681 0.039128296
2.0268514 0.92839336 -0.51468801
2.044059 0.93541223 -0.43695265
2.0284269 0.92697316 -0.35322908
4.1168547 1.8805004 0.55572426
2.0206699 0.92257714 -0.27274361
4.162055 1.8993889 0.72460455
2.0267694 0.9240799 -0.19488023
4.1035576 1.8700979 0.8765766
2.0356815 0.92728508 -0.11723255
4.0117927 1.8265897 1.0176786
2.0222685 0.9198972 -0.038779248
4.013144 1.8246689 1.1812501
2.0425715 0.9235453 0.039128296
2.0370128 0.92017448 -0.5160377
4.1809425 1.8833776 0.56303644
2.0290926 0.91361493 -0.27323109
4.332263 1.9497237 0.75244987
2.0352139 0.91508979 -0.19522884
2.044153 0.91825014 -0.1174419
4.0355248 1.8119423 1.0212778
2.025233 0.90847719 -0.038744342
3.9891517 1.7886117 1.171415
2.0492063 0.91365081 0.039163202
3.6838412 1.640151 0.2113326
2.0375991 0.90677232 -0.43351805
2.0470476 0.9096933 -0.3547934
4.2052593 1.8679085 0.56498629
2.0247774 0.89894927 -0.27201241
4.3604684 1.9350252 0.75557858
2.0436213 0.90603489 -0.19557749
4.3562536 1.9304258 0.92618686
2.0507584 0.90834391 -0.11754657
4.1661267 1.8444334 1.0518711
2.0409346 0.90271467 -0.03895377
3.9666576 1.753641 1.1620976
2.0318704 0.89362252 -0.5947662
2.0429776 0.89808095 0.03895377
2.0501049 0.90036142 -0.51693749
3.7947915 1.6657977 0.21719423
2.0567019 0.90240127 -0.436571
2.030071 0.88944954 -0.35103899
2.0421858 0.89390796 -0.27371857
4.4067345 1.9280046 0.76183593
2.0410342 0.89213073 -0.19488023
4.3842921 1.9154514 0.93000305
2.0628085 0.90078956 -0.11796526
4.1882281 1.8280525 1.0550205
2.0602977 0.89840913 -0.03923301
3.9563046 1.7243584 1.1564035
2.0471566 0.88758099 -0.59787202
2.047652 0.8873713 0.03895377
2.0476384 0.88651651 -0.51513791
3.803462 1.6459049 0.21719423
2.0397751 0.88226807 -0.43199161
2.0419538 0.88194162 -0.35229045
4.27562 1.8457981 0.57181102
2.0468385 0.88320255 -0.27371857
4.4457912 1.9174206 0.76684189
2.0529969 0.88458514 -0.19557749
4.4158993 1.9017873 0.93458253
2.0454822 0.88050079 -0.11670919
4.3302088 1.8630916 1.0883132
2.0649734 0.88760984 -0.03923301
3.9457543 1.6952304 1.1507095
2.049999 0.8760913 -0.59735435
2.0541091 0.87742394 0.03898868
2.0379128 0.86966467 -0.51153868
3.7789593 1.6118642 0.21531016
2.0479794 0.87311435 -0.43275481
2.0465443 0.87123662 -0.35229045
4.1244836 1.7549906 0.55036199
2.0423007 0.86858934 -0.27249986
4.4921293 1.9095718 0.77309924
2.0502644 0.87070888 -0.19488023
4.4655552 1.8955153 0.94297814
2.0463867 0.8682192 -0.11649985
4.3937278 1.8632168 1.1018102
2.0695922 0.87678617 -0.03923301
3.9794819 1.6850929 1.1579564
2.0581191 0.86684501 -0.59838963
2.0568321 0.86588037 0.03895377
2.0602508 0.86689633 -0.5160377
3.7449996 1.5742536 0.21290269
2.0470924 0.86009836 -0.43160996
2.0527489 0.86163211 -0.35260335
4.1482615 1.7395115 0.5523119
2.0449903 0.8571164 -0.27225614
4.5148187 1.891369 0.7752893
2.0656722 0.86493731 -0.19592611
4.5134525 1.8880194 0.95099211
2.0509048 0.85749215 -0.11649985
4.4627595 1.8649815 1.116657
2.059242 0.86013359 -0.03895377
4.0040035 1.671629 1.1626152
2.0590611 0.85457551 -0.59735435
2.0613377 0.85509872 0.03895377
2.0575607 0.8531121 -0.51423806
3.787977 1.569806 0.21489146
2.0441647 0.8467207 -0.43008351
2.0681849 0.85540175 -0.35448053
4.4413624 1.8360434 0.59009141
2.0566409 0.84978676 -0.27323109
2.0554383 0.84803021 -0.19453162
2.0515258 0.84557813 -0.11629051
2.0563207 0.84629518 -0.038814154
4.0144887 1.6513755 1.1631329
2.0597842 0.84267944 -0.59631914
2.0637882 0.84389824 0.038918864
2.0710199 0.84601057 -0.5164876
3.7702565 1.5393821 0.21342604
2.0522051 0.83749014 -0.43084675
2.0580003 0.83859837 -0.35197759
2.0647395 0.8405031 -0.27371857
4.5523524 1.8522239 0.778418
2.0598505 0.83725607 -0.19453162
4.5508432 1.8488333 0.95480824
2.0744302 0.84233862 -0.11733723
4.5683999 1.8541058 1.1382524
2.0662832 0.83777052 -0.038918864
4.0463552 1.6397647 1.169862
2.064168 0.83188361 -0.59631914
2.0644689 0.83158606 0.038849056
2.0826523 0.8380658 -0.51828724
3.7708533 1.5166385 0.21300736
2.0693135 0.83185792 -0.43351805
2.058697 0.82633829 -0.35135183
4.0826631 1.6379111 0.54012495
2.0727968 0.831159 -0.27420604
4.3639607 1.7489934 0.74462813
2.0642059 0.82645994 -0.19453162
4.5495257 1.8206005 0.95251852
2.0788121 0.83146608 -0.11733723
4.5056643 1.8012264 1.1202562
2.0594988 0.82249081 -0.038709439
4.0835924 1.630016 1.1781443
2.0725121 0.82224077 0.038918864
3.7713149 1.4939326 0.21258868
2.0776916 0.82135814 -0.35385481
4.0616441 1.6048397 0.53622514
2.0678883 0.81664932 -0.27298734
4.310586 1.7014624 0.73399061
2.0685046 0.81564111 -0.19453162
4.5297713 1.785238 0.94641262
2.0794208 0.8191058 -0.11712788
4.4624486 1.7569085 1.1072091
2.0842474 0.81974679 -0.03909339
4.113646 1.6170946 1.184356
2.0871601 0.8158493 -0.60046023
2.0805147 0.81283194 0.03898868
2.0876834 0.81479406 -0.51738745
3.6302299 1.4160967 0.20421492
2.0687647 0.8065784 -0.43160996
2.0746002 0.80760247 -0.35260335
4.0625911 1.5806731 0.53525019
2.0721362 0.80580938 -0.27298734
4.521966 1.7575897 0.76840615
2.0801766 0.80768251 -0.19522884
4.5390558 1.7614973 0.94641262
2.0911291 0.81109649 -0.11754657
4.4570518 1.7278812 1.1036098
2.0698633 0.80160153 -0.038744342
4.1058431 1.5892547 1.1796973
2.0859942 0.80282885 -0.59890729
2.0810091 0.80049205 0.038918864
2.0882828 0.80245346 -0.5164876
3.6338656 1.3956386 0.20400558
2.0747929 0.79643863 -0.43199161
2.0695779 0.79319382 -0.35103899
4.041152 1.5480176 0.53135037
2.0800347 0.79636902 -0.27347484
4.6325774 1.772717 0.78561401
2.0732107 0.792512 -0.19418299
4.6160741 1.7636317 0.96053255
2.0953479 0.8001349 -0.11754657
4.4660368 1.704522 1.1036098
2.0889807 0.79645061 -0.039023582
4.0942502 1.5601692 1.1740032
2.0757174 0.78641886 -0.5947662
2.0851715 0.78958571 0.038918864
2.1070375 0.79702365 -0.52008682
2.0862803 0.78834069 -0.43351805
2.077399 0.78374088 -0.35166472
4.0417724 1.5240349 0.53037542
2.0841761 0.78546673 -0.27347484
4.6177645 1.7393838 0.78154671
2.0754671 0.78094393 -0.19400868
4.5903306 1.7263067 0.95328182
2.1032474 0.79055887 -0.1177559
4.4566584 1.6742605 1.0991108
2.0968661 0.78690767 -0.03909339
3.9884093 1.495968 1.1413921
2.0834267 0.77689022 -0.59580147
2.0817821 0.77586323 0.038779248
2.08744 0.77714217 -0.51423806
4.7451987 1.7656679 0.26534331
2.0940602 0.77877355 -0.43428129
4.7267737 1.7569339 0.44118237
2.0777707 0.77147752 -0.35103899
4.0329466 1.4966367 0.52818179
2.0919824 0.77592462 -0.27396232
4.6156955 1.7110611 0.77966946
2.0851331 0.7721414 -0.19453162
4.5845771 1.6967957 0.95022881
2.099865 0.77676457 -0.11733723
4.4507413 1.6454959 1.0955117
2.0972059 0.77453291 -0.039023582
4.1284876 1.5238979 1.1791797
2.0983477 0.76996338 -0.59890729
2.0933259 0.76770622 0.038918864
2.0914805 0.76620144 -0.51423806
4.7450018 1.7373638 0.26481998
2.0981088 0.76779914 -0.43428129
2.0854921 0.76194417 -0.35166472
4.0239458 1.4693713 0.5259881
2.0848277 0.76087666 -0.27249986
4.6078887 1.6807793 0.77685362
2.0985072 0.7646243 -0.19540317
4.5860195 1.6700823 0.94870234
2.0963962 0.76302636 -0.11691854
4.4153433 1.6061822 1.0847139
2.1087511 0.76627195 -0.039163202
4.0456195 1.4692886 1.1532978
2.1059844 0.76027757 -0.59994256
2.097317 0.75673479 0.038918864
2.0954638 0.75523961 -0.51423806
2.0965586 0.75480855 -0.43313646
2.0968885 0.7536875 -0.35291618
4.0241117 1.4455967 0.52501315
2.086915 0.74927908 -0.27225614
4.5961733 1.6492919 0.77341211
2.1062331 0.75497031 -0.19575179
4.583611 1.6420757 0.94641262
2.1078842 0.75473195 -0.11733723
4.41085 1.5784448 1.0815647
2.105202 0.75252831 -0.039023582
3.9695721 1.4181873 1.1294864
2.097193 0.74471581 -0.59631914
2.1050193 0.74708128 0.03898868
2.0993893 0.74425817 -0.51423806
4.7252831 1.67424 0.26272655
2.091229 0.74054259 -0.43122834
4.7124658 1.6678478 0.4373475
2.1026692 0.7433551 -0.35322908
4.0634437 1.4357506 0.52915668
2.1039119 0.74296951 -0.27396232
4.5786686 1.6159968 0.76903194
2.0988827 0.73995781 -0.19470593
4.5662236 1.6089166 0.94107002
2.1118071 0.74368441 -0.11733723
4.4043479 1.5501539 1.0779655
2.1091132 0.74149483 -0.039023582
3.976943 1.3973846 1.1294864
2.1101828 0.73690897 -0.59890729
2.1013498 0.73341405 0.038849056
2.1142983 0.73710442 -0.51693749
4.7132368 1.6422484 0.26157513
4.6853824 1.6307067 0.43403557
2.1028006 0.73103869 -0.35260335
4.0559053 1.4092423 0.52720684
2.1058986 0.73129076 -0.27371857
4.5758696 1.5881163 0.76715469
2.1027288 0.72895658 -0.19470593
4.548614 1.5759891 0.93572736
2.0986862 0.72673583 -0.11639518
4.4050388 1.5245194 1.0761659
2.1186366 0.73240221 -0.039128296
3.9988134 1.3815867 1.1336274
2.1013789 0.721102 0.038779248
4.7066565 1.6123663 0.26073778
2.1174433 0.72496277 -0.43504456
4.6750054 1.5997028 0.43229246
2.0953844 0.71618479 -0.3507261
4.0425644 1.3809289 0.5245257
2.1134558 0.72153771 -0.27420604
4.0438237 1.379781 0.67673558
2.098973 0.71536654 -0.19400868
4.5382195 1.5458202 0.93191117
2.1005714 0.71509415 -0.11629051
4.398201 1.4964137 1.0725666
2.1072953 0.71615213 -0.038849056
3.9694076 1.3482054 1.1232747
2.1196146 0.71538836 -0.59942496
2.1089149 0.71136826 0.038849056
4.6885347 1.5787786 0.25927237
2.1249313 0.715119 -0.43580776
4.6852069 1.5758351 0.4324668
2.1083443 0.7087177 -0.35229045
4.0440946 1.3578452 0.52379447
2.1096766 0.70793641 -0.27323109
4.0360098 1.3535653 0.67423266
2.1252363 0.71233135 -0.19610041
4.5350809 1.5182989 0.92962146
2.1004994 0.70281702 -0.11608116
4.3764052 1.4634774 1.0653682
2.1203761 0.70864594 -0.039023582
3.9395337 1.3158561 1.112922
2.1178303 0.70245641 -0.59787202
2.1164072 0.70157444 0.038918864
2.1143932 0.70049733 -0.51423806
4.6699209 1.5462377 0.25780693
2.1024296 0.69571948 -0.4304651
4.6725841 1.5444055 0.43054935
2.1157775 0.69890761 -0.35291618
4.0396051 1.3336262 0.52233207
2.117003 0.698493 -0.27371857
4.0148997 1.3231393 0.66953957
2.1251519 0.69994801 -0.19575179
4.5259242 1.4897999 0.92618686
2.1192074 0.69717032 -0.11691854
4.3893104 1.4431329 1.0667179
2.1164587 0.69503707 -0.038883962
3.9059882 1.2819587 1.1015339
2.1213586 0.69172782 -0.59787202
2.1275358 0.69333237 0.039058488
2.1365626 0.69544816 -0.51873708
4.6703553 1.5192952 0.25738826
2.1060438 0.68470132 -0.4304651
4.6500239 1.510884 0.42776039
2.1381972 0.69391727 -0.35604486
4.0370913 1.3093938 0.52111334
2.1187429 0.68678743 -0.27347484
4.0102706 1.2991478 0.66766238
2.1249967 0.68758422 -0.19540317
4.5243235 1.463061 0.92427886
2.1228287 0.6860643 -0.11691854
4.3819714 1.4153385 1.0631187
2.1162622 0.68271858 -0.038814154
3.9218402 1.2644531 1.1041222
2.1120725 0.67648661 -0.59424853
2.1235192 0.6797443 0.038918864
2.1253252 0.67950475 -0.51513791
4.6611242 1.4893486 0.25644621
2.1133401 0.67485994 -0.43122834
4.6426859 1.4816713 0.42636588
2.1173344 0.67491287 -0.35197759
4.0419998 1.2876365 0.52086961
2.1355507 0.67989844 -0.275181
4.0132532 1.2769339 0.66703665
2.1209724 0.6740343 -0.19470593
4.5094681 1.4322195 0.91969937
2.1378136 0.67856598 -0.11754657
4.387465 1.3917855 1.0626688
2.1274328 0.67404515 -0.03895377
3.9191988 1.2409846 1.1015339
2.1192713 0.66657865 -0.59528387
2.1156034 0.66501808 0.038709439
2.1325727 0.66953439 -0.5160377
4.657424 1.4613343 0.25581816
2.1280847 0.66730946 -0.43351805
4.6427751 1.4549581 0.42566866
2.1227243 0.66440815 -0.35229045
4.0240574 1.2587503 0.51770103
2.1390812 0.66870815 -0.275181
4.0085707 1.25237 0.66515946
2.135884 0.66648132 -0.19575179
4.4981623 1.4027451 0.91588324
2.1413376 0.66736174 -0.11754657
4.3928308 1.3682154 1.0622189
2.138571 0.66527128 -0.03909339
3.929332 1.221595 1.1025692
2.1338079 0.65889156 -0.59838963
2.1343427 0.65864867 0.03898868
2.1267376 0.65548885 -0.51378822
2.1390548 0.65846884 -0.43504456
4.6389041 1.4271129 0.42462277
2.1223972 0.65212482 -0.35166472
4.0173101 1.2335837 0.51599485
2.1292694 0.65342188 -0.27347484
4.0112953 1.2302068 0.66453367
2.1469648 0.65762246 -0.19644904
4.490427 1.3745779 0.91283029
2.1409826 0.65497279 -0.11733723
4.3962078 1.3440559 1.0613191
2.1420248 0.65406531 -0.03909339
3.8913291 1.1874714 1.0901459
2.1409261 0.64883125 -0.59942496
2.1377618 0.64746499 0.03898868
2.1394668 0.64716619 -0.5160377
4.2595201 1.2876487 0.23320904
2.138715 0.64612293 -0.43428129
4.6310539 1.3981988 0.42322829
2.1295657 0.6421423 -0.35229045
4.0161109 1.2102425 0.51501989
2.1383636 0.64398217 -0.27420604
3.9949837 1.202353 0.66077924
2.1389301 0.64293152 -0.19540317
4.4862823 1.3476557 0.91054058
2.152034 0.64605141 -0.1177559
4.3863859 1.3159806 1.0572699
2.1281805 0.63767487 -0.038779248
3.8900895 1.1648645 1.0880753
2.1350353 0.63485909 -0.59683669
2.1449561 0.63740277 0.039058488
4.5534253 1.3505179 0.24890982
4.6096559 1.3654429 0.42061362
4.0166817 1.1875086 0.51428866
2.1436095 0.63334 -0.2744498
3.9784904 1.1747077 0.65702486
2.1288903 0.62777716 -0.19418299
4.481977 1.3208188 0.90825087
2.1592193 0.63590276 -0.11796526
4.4025636 1.2957437 1.0595194
2.1372454 0.62821549 -0.038883962
3.9295003 1.1542784 1.0973928
2.1405852 0.62392348 0.038918864
4.2612643 1.2396245 0.23258102
2.1472485 0.6242407 -0.43466291
4.5937824 1.3346193 0.41852185
2.1456587 0.62255931 -0.35385481
4.0209379 1.1659096 0.51404494
2.1507099 0.62321109 -0.27493724
3.9769969 1.1516618 0.6557734
2.1417177 0.61939007 -0.19505455
4.4586544 1.2886108 0.90214497
2.1663568 0.62569755 -0.11817461
4.4074154 1.2721353 1.0590695
2.152034 0.62033921 -0.03909339
3.8538098 1.1101598 1.0746168
2.1527107 0.61565417 -0.59994256
2.1399772 0.61160856 0.038849056
2.1549902 0.61508459 -0.51738745
2.1561518 0.61460346 -0.43580776
4.5968766 1.3094536 0.41817325
2.141289 0.60915482 -0.35260335
4.038444 1.1480945 0.51550734
2.1615818 0.61411226 -0.27591223
3.9810715 1.1302843 0.65546048
2.1487651 0.60925531 -0.19540317
4.4483404 1.2604324 0.89871037
2.1619165 0.61216801 -0.1177559
4.4233909 1.2516953 1.0613191
2.1629503 0.61123765 -0.03923301
3.8632874 1.0910172 1.075652
2.1670656 0.6075027 -0.60304838
2.1470015 0.60147387 0.038918864
2.1544275 0.60274333 -0.5164876
4.6260114 1.2933469 0.25173599
2.1706853 0.60647482 -0.43809745
4.5825596 1.2794741 0.4162558
2.1292267 0.59368998 -0.35010037
2.1532936 0.59959054 -0.2744498
4.1106348 1.1438446 0.67579699
2.1557648 0.59906262 -0.19575179
4.449204 1.2355469 0.89756554
2.161243 0.59977239 -0.11754657
4.4186172 1.2253919 1.0586197
2.1661208 0.59990484 -0.03923301
3.8763947 1.0728348 1.0777225
2.166491 0.5951249 -0.60201317
2.1655481 0.59445834 0.039198104
2.1519156 0.58990961 -0.51513791
2.1511083 0.58888 -0.43351805
4.579587 1.2528354 0.41538426
2.1532671 0.58825928 -0.35354191
3.9257693 1.0717617 0.49966437
2.1468282 0.58569503 -0.27323109
4.1546845 1.132697 0.68205434
2.1588721 0.58776653 -0.19575179
4.4385629 1.2075949 0.894131
2.1720629 0.59054476 -0.11796526
4.4099283 1.1981511 1.0550205
2.1673021 0.58803082 -0.039198104
3.9341662 1.0666779 1.0922165
2.1583843 0.58076102 -0.59890729
2.1647687 0.58207369 0.039128296
2.1718118 0.58356106 -0.51918703
3.5841258 0.96170557 0.19448043
2.1579545 0.57862639 -0.43428129
4.5649157 1.2231644 0.41346684
2.1638496 0.57939762 -0.3547934
3.9196382 1.0487987 0.49820194
2.1613722 0.57752162 -0.27469352
4.1968193 1.1206113 0.68799889
2.1502693 0.57374978 -0.19470593
4.4408245 1.1841016 0.89336777
2.1789856 0.58019018 -0.11817461
4.3973093 1.170033 1.0505214
2.1663857 0.57602662 -0.039128296
3.9544516 1.0507197 1.0963575
2.1612961 0.5698297 -0.59890729
2.1522176 0.56703335 0.038849056
2.1690841 0.57107228 -0.51783729
3.585084 0.942536 0.19427109
2.1760464 0.57168716 -0.43733424
4.5556302 1.1959997 0.41207233
2.1552901 0.56542999 -0.35291618
2.1642675 0.56657422 -0.27469352
4.1279063 1.0798569 0.67579699
2.1666391 0.56638592 -0.19592611
4.4201674 1.1546639 0.8880251
2.1857595 0.57016176 -0.11838394
4.4144893 1.1507119 1.0532209
2.1866894 0.56959039 -0.039442439
3.9653277 1.0321503 1.0979104
2.1716347 0.56081498 -0.60097784
2.1628053 0.5581311 0.03898868
2.1682701 0.55873531 -0.51693749
3.7832255 0.97418255 0.20473827
2.1789119 0.56066555 -0.43733424
4.5461888 1.1689564 0.41067785
2.1543946 0.55315441 -0.35229045
3.8956192 0.999502 0.49381462
2.1709533 0.55659825 -0.275181
4.1237512 1.0564981 0.67423266
2.1657145 0.55404687 -0.19557749
4.4185448 1.1295587 0.88649869
2.177006 0.55612707 -0.1177559
4.4089279 1.1254607 1.0505214
2.1857662 0.55714601 -0.039372627
2.1820335 0.55132824 -0.60304838
2.1656978 0.54679978 0.03898868
2.1730561 0.54784971 -0.51738745
3.819262 0.96216822 0.20641303
2.1894331 0.55116695 -0.43886071
4.5406547 1.1422175 0.409632
2.1687565 0.54475456 -0.35416767
2.1661358 0.54329258 -0.27420604
4.1196456 1.0324919 0.67266828
2.1840475 0.54656976 -0.19697197
4.4205885 1.1054566 0.88573539
2.1798885 0.54471934 -0.1177559
4.3750558 1.0924478 1.0410734
2.1692512 0.54085469 -0.039023582
3.8446996 0.95788002 1.0616758
2.1801794 0.53832853 0.039198104
2.1777866 0.53693128 -0.51783729
4.5514755 1.1213197 0.245665
4.5349646 1.115573 0.40858611
2.1715791 0.53339124 -0.35416767
3.8210456 0.93783218 0.48309013
2.163167 0.53052449 -0.27347484
4.1288328 1.0118471 0.67329407
2.1752679 0.53228498 -0.19592611
4.4167809 1.0799631 0.88382733
2.1865911 0.53424686 -0.11796526
4.3845024 1.0704489 1.0419734
2.1759386 0.53043705 -0.03909339
3.8083692 0.92767698 1.0502877
2.184912 0.52737576 0.03923301
2.1862514 0.52689153 -0.51918703
4.5339828 1.091863 0.24440894
2.1759973 0.5236156 -0.43504456
4.5116854 1.0848273 0.40597141
2.1820254 0.52385777 -0.35541913
3.8123915 0.91457218 0.48138395
2.169776 0.52011704 -0.27396232
4.2666259 1.0219636 0.69488198
2.1663983 0.51810819 -0.19488023
4.4070997 1.053171 0.88077438
2.2010143 0.52557355 -0.11859328
4.3388672 1.0352647 1.0298259
2.1825769 0.5199632 -0.039163202
3.7605531 0.89519674 1.0357939
2.1791427 0.51432472 -0.59994256
2.1837509 0.51501006 0.039163202
2.1908772 0.51588351 -0.51963693
2.1978204 0.51670879 -0.43886071
4.4998474 1.057088 0.40440264
2.1770456 0.51062196 -0.35416767
3.8963695 0.91316879 0.4913772
2.1744025 0.50920033 -0.27420604
4.3930936 1.0279655 0.71459275
2.1768427 0.50856966 -0.19557749
4.3896103 1.0247267 0.87619489
2.2056811 0.51449639 -0.11869796
4.3689013 1.0182822 1.0356746
2.1930599 0.51034182 -0.039302818
3.785887 0.88030654 1.0414879
2.1893361 0.50464314 -0.60201317
2.1897497 0.50353128 -0.51873708
3.8132696 0.87615776 0.2050523
2.1909285 0.50299716 -0.43695265
4.5014367 1.0326208 0.40405402
2.1777637 0.49877468 -0.35385481
2.2021956 0.50356138 -0.27737463
4.3868613 1.0023087 0.71271551
4.3776889 0.9978016 0.87276042
3.8792086 0.88347149 -0.20850646
4.3475704 0.9893406 1.029376
3.8649035 0.87808526 -0.069181338
3.8262386 0.86859864 1.0513231
2.2221041 0.49995741 -0.6102953
4.3234205 0.97194785 0.077349067
4.4765172 1.0039036 0.24043141
2.7912455 0.62545162 -0.5560174
4.4951162 1.0064247 0.40300813
2.795315 0.62482667 -0.45366001
3.7875397 0.84592104 0.47650915
3.0204623 0.67404771 -0.37998864
3.7770083 0.84218496 0.61291033
3.4850543 0.77581096 -0.31236616
4.3656054 0.97102934 0.86932582
4.3431783 0.96445233 1.0271264
3.7562151 0.83273292 -0.067156859
3.8609121 0.85523874 1.0596052
2.4813139 0.54464465 -0.6806941
4.2815723 0.9390133 0.076511353
2.7126942 0.59394377 -0.64111048
2.7944818 0.61082911 -0.5560174
4.4964314 0.98202586 0.40265954
3.7744603 0.82227635 0.47431552
3.0452871 0.66286582 -0.38266978
3.758203 0.8173607 0.60915589
3.4988041 0.75966412 -0.31323773
4.3687115 0.94774318 0.86894423
3.6969581 0.80133826 -0.19824862
4.3272195 0.93715841 1.0221776
3.7683415 0.8147456 -0.067296483
3.9106567 0.84479892 1.0720285
2.4897985 0.53285879 -0.68224704
3.9266198 0.83964407 0.070088863
2.7309115 0.58346289 -0.64470971
4.5278049 0.96571904 0.24262951
2.7918818 0.59496093 -0.55487263
4.4781265 0.95349163 0.40056777
2.8189898 0.59970921 -0.45647582
3.7728884 0.80126619 0.47358429
3.0448322 0.6460886 -0.3821823
3.7547014 0.79603231 0.60790437
3.4577734 0.73245192 -0.30922857
4.3620892 0.922418 0.86665452
3.3767197 0.71343201 -0.18087308
4.3149056 0.91086715 1.0181284
3.8291602 0.80762929 -0.068308719
3.931896 0.82857919 1.0766873
2.4887726 0.51902461 -0.68121177
3.8741903 0.80724496 0.069076627
2.7415602 0.57074547 -0.64650929
4.4974375 0.93546766 0.24074543
2.794857 0.58082324 -0.55487263
4.4733043 0.9280048 0.39969626
2.8259597 0.58574367 -0.45710155
3.7730081 0.78135395 0.47309685
3.0558391 0.63227737 -0.38315722
3.7491448 0.77436525 0.60634005
3.4693668 0.71594554 -0.30992582
4.345551 0.89596611 0.86245668
3.6365471 0.74912375 -0.1945851
4.327096 0.89058656 1.0199281
3.3749812 0.69339973 -0.060140993
3.9323947 0.80720478 1.075652
2.4875813 0.50565231 -0.68017644
3.9017427 0.79240084 0.069495484
2.7311418 0.55367225 -0.64336002
4.4885712 0.90913248 0.24001274
2.8094053 0.56851739 -0.55716228
4.4662266 0.90298176 0.39865038
3.7381296 0.75373816 0.46822205
3.0474317 0.61391729 -0.38169482
3.7530165 0.7553786 0.60634005
4.3386335 0.87088382 0.86016703
4.3145027 0.86447364 1.0158789
3.7374036 0.74748468 -0.066528574
3.8285863 0.76502836 1.0461466
2.4977751 0.4941197 -0.68224704
3.894068 0.76963365 0.069286056
2.7263563 0.53785533 -0.64156044
4.4599571 0.87905139 0.23823328
2.8104174 0.55341989 -0.5567807
4.4650283 0.87843204 0.39812744
2.843569 0.55840158 -0.4589788
3.7439725 0.73453844 0.46846578
3.1635895 0.62009847 -0.39583167
3.7472277 0.73381889 0.60477573
3.4844954 0.68110526 -0.31062305
4.3315725 0.84589648 0.85787731
3.8951106 0.7599557 -0.20798311
4.2998428 0.8381421 1.01138
3.8256702 0.74432856 -0.068029478
3.8116796 0.74091613 1.0404526
2.5079162 0.48249534 -0.68431759
3.8273492 0.73564696 0.068029478
2.7291348 0.52357376 -0.64156044
4.4527292 0.85343283 0.23760527
4.4578252 0.85279649 0.39708155
2.805707 0.53572446 -0.45240852
3.7341175 0.71232247 0.46675962
3.2135932 0.61244416 -0.40168139
3.7354944 0.71123207 0.60227275
3.4743121 0.66024685 -0.30940288
4.3340139 0.82283801 0.85749573
3.8558662 0.73136359 -0.20568034
4.2945986 0.81380188 1.0091304
3.8020067 0.71908581 -0.06754081
3.7623558 0.71090454 1.0259588
2.4990149 0.46722677 -0.68121177
3.8684969 0.72257251 0.068692669
2.7337544 0.50963354 -0.64201027
4.4433923 0.82754624 0.23687255
4.4445996 0.82616603 0.39551273
2.8997583 0.53796256 -0.46711335
3.7456036 0.69420743 0.46773461
3.4626968 0.64114863 -0.43239245
3.7294548 0.68986803 0.60070843
3.4855587 0.64349443 -0.31010011
4.3208866 0.79693055 0.85406113
3.8694639 0.71297336 -0.2062037
3.7801521 0.69446909 -0.067087047
3.7622263 0.69049722 1.0249234
2.4976251 0.45344505 -0.68017644
3.8112316 0.69124383 0.067610621
2.7478909 0.49739489 -0.64470971
4.4437337 0.80355793 0.23666322
2.8206952 0.50955784 -0.55716228
4.4351392 0.80040532 0.39429256
2.8286595 0.50946742 -0.45522434
3.7355108 0.67212468 0.46602839
3.5676031 0.64127058 -0.44506687
3.7388487 0.67137808 0.60164702
3.5418313 0.63472402 -0.31480655
3.8380024 0.68710887 0.75789338
3.8928046 0.69621891 -0.20725042
3.8231091 0.68168855 -0.067785151
3.7772014 0.67282265 1.0280293
2.5113804 0.44237292 -0.68328232
3.795104 0.66781455 0.067261577
2.74278 0.48165286 -0.64291006
4.4360771 0.77821058 0.23603518
2.9238818 0.5124023 -0.57700646
4.433382 0.77614063 0.39376962
2.8585312 0.49940735 -0.45960453
3.7233348 0.64982557 0.46407849
3.6158905 0.63042504 -0.45067286
3.7306364 0.64975816 0.59976977
3.5922167 0.62435985 -0.31898999
3.744832 0.65021062 0.73881245
3.8550713 0.66865826 -0.2050523
3.8088923 0.65859449 -0.067471005
3.7654428 0.65040678 1.0238881
2.5098538 0.4285666 -0.68224704
3.8084056 0.6496132 0.067436099
2.7356589 0.46564972 -0.64066058
3.0271721 0.51418239 -0.59685057
4.423635 0.75058538 0.39254946
3.3636022 0.56951529 -0.54032475
3.7266862 0.63032258 0.46407849
3.6661186 0.61941844 -0.45652261
3.7417786 0.63153195 0.60102129
3.6268725 0.6108346 -0.32177898
3.7791619 0.63580662 0.74491841
3.8427622 0.6458171 -0.20421492
3.7748158 0.632366 -0.066807814
3.7840402 0.63323057 1.0280293
2.523499 0.41731119 -0.68535286
3.8275383 0.63227212 0.067715339
2.7495961 0.45322204 -0.64336002
4.3966861 0.72392517 0.23352307
3.0181994 0.49641302 -0.59456086
4.4235716 0.72676837 0.39220083
3.3587406 0.55061698 -0.53907323
3.7514842 0.61433113 0.46675962
3.7770593 0.61784053 -0.46992823
3.774277 0.61670911 0.60571432
4.3772626 0.71366715 -0.38801736
3.8211935 0.62232131 0.75255072
3.8421481 0.62504756 -0.20400558
4.0124393 0.65203005 0.93849587
3.7405705 0.60651267 -0.066144623
3.7739549 0.6112479 1.0244058
2.514204 0.40225965 -0.68224704
3.8011765 0.60749012 0.067191765
2.7596295 0.44004473 -0.6451596
4.4201393 0.70403737 0.23456979
3.0246348 0.4812209 -0.5953241
4.395834 0.6985907 0.38941187
3.252321 0.51570016 -0.52155256
3.8232725 0.60554641 0.47529048
3.6312287 0.5744819 -0.45140409
4.3848753 0.69136024 -0.38836598
3.8825803 0.61146921 0.76399928
3.8453686 0.60491914 -0.20400558
4.154407 0.65279132 0.97088867
3.7476468 0.58753592 -0.066214427
3.7694693 0.5902831 1.0223353
2.5086391 0.3879098 -0.68017644
3.8201156 0.59002024 0.067471005
2.7657475 0.42618382 -0.64605945
